40.1586265564,-15.7654438019,2.55023217201
40.1777000427,-15.7322969437,2.54159593582
40.2221260071,-15.6550769806,2.54709148407
40.2441558838,-15.6167869568,2.54664206505
40.2672996521,-15.5765619278,2.54875349998
40.293132782,-15.5316619873,2.55850887299
40.3333702087,-15.4617204666,2.53452038765
40.3641738892,-15.4081850052,2.55445432663
40.3871383667,-15.368265152,2.54795432091
40.4182014465,-15.3142805099,2.56339025497
40.4646034241,-15.233625412,2.54398441315
40.4932479858,-15.1838407516,2.54654693604
40.5227890015,-15.1324949265,2.54925918579
40.55260849,-15.08066082,2.55050396919
40.6060218811,-14.9878234863,2.53291201591
40.637134552,-14.9337501526,2.53135633469
40.6767959595,-14.8648090363,2.54548358917
40.7123985291,-14.8029308319,2.54823303223
40.7714538574,-14.7002840042,2.52347683907
40.8214950562,-14.6133060455,2.54570007324
40.8620758057,-14.5427751541,2.54729175568
40.9118003845,-14.4563512802,2.56142425537
40.923740387,-14.4355955124,2.51036691666
40.9317169189,-14.4217281342,2.38595151901
40.9338378906,-14.4180440903,2.32304978371
40.9209403992,-14.4404611588,2.24049139023
40.9247627258,-14.4338159561,2.18343472481
40.9326629639,-14.4200839996,2.07275652885
40.9286766052,-14.4270153046,2.00925254822
40.9192085266,-14.4434690475,1.94099938869
40.9141654968,-14.4522371292,1.87968027592
40.9299964905,-14.4247188568,1.78802525997
40.9262886047,-14.4311666489,1.73123168945
40.9210624695,-14.4402523041,1.67423534393
40.9234161377,-14.4361591339,1.62529182434
40.930847168,-14.42324543,1.53133845329
40.9290008545,-14.4264497757,1.48069810867
40.9261817932,-14.431350708,1.43014752865
40.926158905,-14.431394577,1.38236069679
40.9304542542,-14.4239263535,1.29113197327
40.931968689,-14.4212932587,1.24566948414
40.9282455444,-14.4277620316,1.19774103165
40.9260025024,-14.4316654205,1.1512556076
40.9363021851,-14.4137620926,1.06623399258
40.9279251099,-14.4283237457,1.01839649677
40.9308776855,-14.4231910706,0.975473225117
40.9314842224,-14.4221382141,0.931861817837
40.9325256348,-14.4203281403,0.845163583755
40.9339599609,-14.4178342819,0.802243947983
40.9389915466,-14.4090852737,0.760012567043
40.9297332764,-14.4251794815,0.715553939342
40.9279747009,-14.428237915,0.630049467087
40.9325180054,-14.420340538,0.587670505047
40.9317054749,-14.4217510223,0.544999361038
40.9315185547,-14.4220733643,0.502363145351
40.9335212708,-14.4185934067,0.416776269674
40.9361991882,-14.413939476,0.373537957668
40.9360122681,-14.4142656326,0.330509096384
40.9354476929,-14.4152479172,0.28744122386
40.9317016602,-14.4217586517,0.201659336686
40.9324684143,-14.4204263687,0.157824084163
40.9397163391,-14.4078264236,0.111399874091
40.937713623,-14.4113063812,0.0677861124277
40.9286613464,-14.4270381927,-0.0176031757146
40.7780914307,-14.6887521744,-0.0671910792589
40.6937484741,-14.8353490829,-0.0937385708094
40.6394729614,-14.9296855927,-0.0944163352251
40.5648803711,-15.0593357086,-0.0764510184526
40.5174789429,-15.1417217255,-0.106441274285
40.4611930847,-15.2395553589,-0.0915013700724
39.6889190674,-17.4713840485,0.0715002268553
39.6962013245,-17.4587287903,0.0984905809164
39.6998634338,-17.4523658752,0.120597943664
39.7003364563,-17.4515399933,0.156165018678
39.700630188,-17.4510307312,0.173518761992
39.7024688721,-17.4478359222,0.191952839494
39.6988754272,-17.4540786743,0.221714749932
39.699848175,-17.4523887634,0.238595619798
39.7019271851,-17.4487743378,0.255993187428
39.6990356445,-17.4538002014,0.285116910934
39.7016067505,-17.4493370056,0.302039325237
39.7019462585,-17.4487419128,0.317323774099
39.7019538879,-17.4487323761,0.332250952721
39.6999511719,-17.4522132874,0.360765308142
39.7013320923,-17.4498081207,0.375968009233
39.7013931274,-17.4497089386,0.390444934368
39.7020721436,-17.4485263824,0.405039787292
39.6998748779,-17.4523410797,0.432826697826
39.7009391785,-17.4504909515,0.44726100564
39.7006454468,-17.4510040283,0.461272925138
39.7014694214,-17.4495735168,0.475449949503
39.7005004883,-17.4512577057,0.503236114979
39.7001953125,-17.4517841339,0.517150402069
39.7000160217,-17.4521007538,0.531073212624
39.6999549866,-17.452205658,0.545000195503
39.7006950378,-17.4509181976,0.57281512022
39.7005004883,-17.4512577057,0.586764335632
39.6989326477,-17.4539794922,0.600944936275
39.701965332,-17.4487113953,0.614463329315
39.7009391785,-17.4504909515,0.642739415169
39.7023468018,-17.4480495453,0.656477868557
39.7004203796,-17.4513950348,0.671242833138
39.7001075745,-17.4519405365,0.685655236244
39.7008476257,-17.4506568909,0.714240312576
39.7004356384,-17.4513702393,0.729010164738
39.7020988464,-17.4484806061,0.742892324924
39.699546814,-17.452917099,0.759043574333
39.7016067505,-17.4493370056,0.787961065769
39.6990356445,-17.4538002014,0.804883539677
39.6994743347,-17.4530410767,0.820105314255
39.6991157532,-17.453660965,0.836059391499
39.7002639771,-17.4516677856,0.867161870003
39.6994552612,-17.4530715942,0.884154856205
39.7006454468,-17.451002121,0.899674594402
39.6983718872,-17.4549598694,0.918594777584
39.7011184692,-17.4501857758,0.950413763523
39.700302124,-17.4516010284,0.968933045864
39.6996917725,-17.4526634216,0.987631380558
39.6966934204,-17.4578723907,1.00950026512
39.6956672668,-17.4596557617,1.0296510458
39.7001647949,-17.4518375397,1.06295192242
39.6964645386,-17.4582691193,1.0879765749
39.693901062,-17.4627304077,1.11226737499
39.6940574646,-17.4624576569,1.1333732605
39.6970748901,-17.4572086334,1.17297494411
39.6960144043,-17.4590530396,1.19760537148
39.6933517456,-17.463684082,1.22571229935
39.6921844482,-17.4657077789,1.25223183632
39.6921043396,-17.4658527374,1.27769827843
39.699005127,-17.4538574219,1.31746029854
39.6945037842,-17.4616794586,1.35393035412
39.6877479553,-17.4734210968,1.39669859409
39.6911430359,-17.4675216675,1.41969919205
39.69581604,-17.4593982697,1.4725382328
39.6943359375,-17.4619750977,1.50945007801
39.6914901733,-17.4669151306,1.55140411854
39.6855735779,-17.4771976471,1.60329866409
39.6936912537,-17.4630889893,1.66063451767
39.6945953369,-17.461517334,1.70000457764
39.692440033,-17.465265274,1.75042080879
39.6866989136,-17.4752483368,1.81474745274
39.6835403442,-17.4807338715,1.8747395277
39.7029457092,-17.4470062256,1.91678440571
39.6873855591,-17.4740543365,2.03010439873
39.6921768188,-17.4657230377,2.07514834404
39.7100868225,-17.4345970154,2.07129454613
39.7406768799,-17.3814220428,2.0811920166
39.757144928,-17.3528022766,2.07975649834
39.7732849121,-17.3247528076,2.078561306
39.7696800232,-17.3310165405,2.17406225204
39.7857818604,-17.303030014,2.26463770866
39.8027420044,-17.2735481262,2.2639529705
39.8145141602,-17.2530918121,2.29399299622
39.8102416992,-17.2605171204,2.43178939819
39.8150215149,-17.2522068024,2.52327680588
39.8510704041,-17.1895484924,2.53022527695
39.869846344,-17.1569156647,2.52589440346
39.8873291016,-17.1265296936,2.53161787987
39.922290802,-17.0657596588,2.54219031334
39.9400138855,-17.0349578857,2.54408121109
39.9583396912,-17.0031070709,2.53642916679
39.9758758545,-16.9726295471,2.53803277016
40.010635376,-16.9122104645,2.54535889626
40.0280952454,-16.8818664551,2.54711103439
40.0457382202,-16.8511981964,2.54126048088
40.0632591248,-16.8207435608,2.53478717804
40.0979118347,-16.760515213,2.54299998283
40.1152114868,-16.7304420471,2.53269720078
40.1326828003,-16.7000770569,2.54178285599
40.1500587463,-16.6698799133,2.54026174545
40.1847953796,-16.6095027924,2.53639316559
40.202583313,-16.578584671,2.54199981689
40.2200698853,-16.5481929779,2.54001760483
40.2381095886,-16.5168380737,2.5453414917
40.2737884521,-16.4548206329,2.54514431953
40.2910766602,-16.4247760773,2.53770303726
40.309841156,-16.3921604156,2.54433345795
40.3277702332,-16.3609962463,2.54148411751
40.3636665344,-16.2986030579,2.53384113312
40.3823127747,-16.2661972046,2.53385043144
40.4020576477,-16.2318782806,2.53985142708
40.4212226868,-16.1985683441,2.54031658173
40.4583091736,-16.134103775,2.53057026863
40.4808959961,-16.0948448181,2.54566264153
40.4999313354,-16.0617599487,2.54029941559
40.5242538452,-16.0194892883,2.55906438828
40.5638923645,-15.9505901337,2.54884624481
40.5801696777,-15.9223003387,2.52773952484
40.60414505,-15.8806285858,2.5372903347
40.627494812,-15.8400440216,2.54222726822
40.6539840698,-15.7940034866,2.55662512779
40.6950759888,-15.7225799561,2.53791379929
40.7226371765,-15.6746768951,2.54978561401
40.7440643311,-15.6374330521,2.5401968956
40.7763900757,-15.5812482834,2.56204819679
40.8236846924,-15.4990434647,2.54812574387
40.8515129089,-15.4506759644,2.55037331581
40.8842048645,-15.3938570023,2.56309533119
40.9135742188,-15.3428087234,2.56480193138
40.9580459595,-15.2655134201,2.52913093567
40.9935340881,-15.2038269043,2.53960037231
41.0298042297,-15.1407871246,2.54890871048
41.0651168823,-15.0794095993,2.55339622498
41.1177787781,-14.9878807068,2.51991319656
41.1618003845,-14.911365509,2.53438878059
41.2089729309,-14.8293771744,2.55105304718
41.2526054382,-14.7535333633,2.55778861046
41.3179397583,-14.6399793625,2.52609992027
41.3051300049,-14.6622438431,2.43631148338
41.3090591431,-14.655412674,2.37511873245
41.3054389954,-14.6617069244,2.30424070358
41.3150634766,-14.6449794769,2.19126319885
41.3066215515,-14.65965271,2.11900615692
41.3108291626,-14.6523342133,2.06480789185
41.3067741394,-14.6593837738,2.001527071
41.3113250732,-14.6514759064,1.89373970032
41.3070259094,-14.6589460373,1.83416831493
41.3025093079,-14.6667947769,1.77576756477
41.3049697876,-14.6625185013,1.72553288937
41.3115692139,-14.6510486603,1.62854576111
41.310256958,-14.6533298492,1.57692027092
41.3079566956,-14.6573286057,1.52534484863
41.3135108948,-14.6476736069,1.48069810867
41.3125534058,-14.6493406296,1.38366293907
41.3139762878,-14.6468677521,1.33731889725
41.3121032715,-14.6501245499,1.28937768936
41.3159980774,-14.6433506012,1.24539387226
41.3172836304,-14.6411151886,1.15464258194
41.3170623779,-14.6415061951,1.10940158367
41.3183708191,-14.6392259598,1.06519448757
41.3109664917,-14.652100563,1.01782405376
41.3169784546,-14.6416501999,0.932174682617
41.317691803,-14.6404075623,0.888756930828
41.3195075989,-14.6372509003,0.845772922039
41.3199577332,-14.636472702,0.802557528019
41.3246879578,-14.6282453537,0.717018842697
41.3140487671,-14.6467428207,0.672803759575
41.3254394531,-14.6269397736,0.630956828594
41.318523407,-14.638964653,0.587722837925
41.3245048523,-14.6285648346,0.50206643343
41.3199577332,-14.6364688873,0.459425806999
41.3260002136,-14.6259679794,0.41593888402
41.3236961365,-14.6299753189,0.373119413853
41.3189659119,-14.6381969452,0.287650287151
41.3180236816,-14.639831543,0.244591459632
41.3196678162,-14.6369743347,0.20068512857
41.3184547424,-14.639081955,0.157354786992
41.3192863464,-14.6376361847,0.0689309686422
41.3173980713,-14.6409215927,0.0252201389521
41.3185195923,-14.6389722824,-0.0200776625425
41.31873703,-14.63859272,-0.0653695613146
41.1337394714,-14.9601345062,-0.0900318175554
41.0464782715,-15.1118049622,-0.0730344802141
41.0018196106,-15.1894283295,-0.0791146308184
40.9331436157,-15.3087968826,-0.0979125052691
40.8784065247,-15.4039325714,-0.0873363167048
40.8333053589,-15.4823217392,-0.0809516459703
40.0694389343,-17.6896114349,0.0907336324453
40.0796394348,-17.6718845367,0.120128467679
40.0813331604,-17.6689395905,0.139586701989
40.0823478699,-17.6671772003,0.15791849792
40.0804100037,-17.6705493927,0.189919129014
40.0792160034,-17.6726226807,0.205454871058
40.0804824829,-17.6704216003,0.222838535905
40.0819282532,-17.6679058075,0.240029081702
40.0792198181,-17.6726150513,0.269569545984
40.0816268921,-17.6684322357,0.286661982536
40.0822982788,-17.6672611237,0.302331715822
40.0816841125,-17.6683273315,0.31704813242
40.0823135376,-17.6672344208,0.347108095884
40.0806541443,-17.670124054,0.360990256071
40.0810623169,-17.6694107056,0.375760108232
40.0816078186,-17.6684627533,0.390444934368
40.0811309814,-17.66929245,0.418914049864
40.0825614929,-17.66680336,0.433522552252
40.0811576843,-17.6692447662,0.44726100564
40.0828475952,-17.6663093567,0.461691021919
40.0811424255,-17.6692752838,0.48933455348
40.0812149048,-17.6691455841,0.503288447857
40.0804138184,-17.6705379486,0.517150402069
40.0806694031,-17.6700935364,0.545000195503
40.0802307129,-17.6708545685,0.558927237988
40.0804138184,-17.6705379486,0.572850048542
40.0812149048,-17.6691455841,0.586712002754
40.0821838379,-17.66746521,0.614463329315
40.080368042,-17.6706180573,0.628832042217
40.0786819458,-17.6735477448,0.643348753452
40.0800933838,-17.6710948944,0.657173752785
40.0822868347,-17.6672801971,0.684960663319
40.0796508789,-17.6718654633,0.700318753719
40.0810623169,-17.6694107056,0.714240312576
40.0806541443,-17.670124054,0.729010164738
40.0821723938,-17.6674842834,0.75774949789
40.0821647644,-17.6674938202,0.772676646709
40.0794372559,-17.6722354889,0.789422988892
40.0792541504,-17.6725540161,0.804883539677
40.079334259,-17.6724147797,0.836059391499
40.0800666809,-17.6711425781,0.851404845715
40.0786323547,-17.6736354828,0.868660330772
40.0769195557,-17.676612854,0.886499226093
40.0790405273,-17.6729278564,0.918172180653
40.0801086426,-17.6710720062,0.934273779392
40.0791130066,-17.6728000641,0.95268368721
40.0787582397,-17.6734161377,0.970810949802
40.0786399841,-17.6736240387,1.00750017166
40.0780220032,-17.6746940613,1.02707588673
40.0776290894,-17.6753826141,1.04683375359
40.0774536133,-17.6756801605,1.06676435471
40.0742034912,-17.6813354492,1.09133172035
40.0795173645,-17.6720943451,1.12573206425
40.0774650574,-17.6756649017,1.15042614937
40.0757217407,-17.6786937714,1.17543756962
40.0762329102,-17.6778068542,1.19760537148
40.0799293518,-17.6713790894,1.23911058903
40.078250885,-17.6742992401,1.26699209213
40.0769348145,-17.6765842438,1.29519844055
40.0731239319,-17.6832122803,1.32926952839
40.0717773438,-17.6855506897,1.38878571987
40.0723800659,-17.6845016479,1.41750514507
40.0730285645,-17.6833763123,1.44717800617
40.0721092224,-17.6849746704,1.48159480095
40.071346283,-17.6863002777,1.51711070538
40.0771522522,-17.6762065887,1.57414221764
40.0708656311,-17.6871356964,1.62874853611
40.0698051453,-17.6889762878,1.67196083069
40.0690917969,-17.6902141571,1.7163875103
40.0761489868,-17.6779518127,1.78623259068
40.0735359192,-17.6824932098,1.84336185455
40.070514679,-17.687746048,1.90532469749
40.0659599304,-17.6956634521,1.97654020786
40.0651817322,-17.6970100403,2.03885054588
40.0884895325,-17.6564998627,2.07842230797
40.1067047119,-17.6248397827,2.0720512867
40.1221618652,-17.5979785919,2.07575416565
40.1381759644,-17.5701446533,2.07610249519
40.158115387,-17.5354824066,2.13326621056
40.1564407349,-17.5383968353,2.22544503212
40.168384552,-17.5176334381,2.25148200989
40.1834487915,-17.4914550781,2.26111650467
40.205039978,-17.4539279938,2.33615899086
40.2008743286,-17.4611644745,2.48386502266
40.2128868103,-17.4402866364,2.52997779846
40.2314109802,-17.4080924988,2.52925491333
40.2675476074,-17.3452835083,2.53161787987
40.2847747803,-17.3153400421,2.53966665268
40.3023376465,-17.2848148346,2.54415988922
40.3206214905,-17.2530345917,2.53914284706
40.3560905457,-17.1913814545,2.53803277016
40.3735618591,-17.1610202789,2.54001092911
40.3911552429,-17.1304340363,2.53838562965
40.4085884094,-17.1001358032,2.5391304493
40.4435119629,-17.0394363403,2.53278827667
40.4608154297,-17.0093574524,2.5336971283
40.4781265259,-16.9792690277,2.53399991989
40.4954376221,-16.949180603,2.5336971283
40.5303268433,-16.8885421753,2.54225897789
40.5477371216,-16.8582820892,2.54112553596
40.5653610229,-16.8276519775,2.54436278343
40.5828514099,-16.7972488403,2.54299449921
40.6183242798,-16.7355918884,2.5453414917
40.6362609863,-16.7044200897,2.54704427719
40.6538314819,-16.6738758087,2.54317498207
40.6718635559,-16.6425380707,2.54359292984
40.7075386047,-16.5805301666,2.537586689
40.7261734009,-16.5481414795,2.53992795944
40.7453041077,-16.5148887634,2.5444662571
40.7641792297,-16.4820842743,2.54538559914
40.7998962402,-16.4200000763,2.53080582619
40.8190803528,-16.3866596222,2.53058886528
40.8405723572,-16.3493003845,2.54184675217
40.8773498535,-16.2853832245,2.52639174461
40.9025230408,-16.2416305542,2.54985928535
40.9231529236,-16.2057723999,2.54931855202
40.9432678223,-16.1708087921,2.54522109032
40.9854927063,-16.0974140167,2.54174542427
41.0079460144,-16.058391571,2.54311013222
41.0296058655,-16.020740509,2.54000711441
41.0541191101,-15.9781398773,2.54551839828
41.0765762329,-15.9391012192,2.54219937325
41.1234664917,-15.8576030731,2.53768086433
41.151309967,-15.809211731,2.54629635811
41.1792068481,-15.760720253,2.55274128914
41.2077140808,-15.7111740112,2.55864310265
41.256439209,-15.6264858246,2.5426068306
41.2865715027,-15.5741081238,2.54692769051
41.3160552979,-15.5228662491,2.54743981361
41.3484039307,-15.4666385651,2.55252718925
41.4011802673,-15.3749103546,2.52989339828
41.4418716431,-15.3041849136,2.54620289803
41.4764213562,-15.244134903,2.54681897163
41.5155715942,-15.1760826111,2.55395150185
41.5862236023,-15.0532836914,2.54570007324
41.6283073425,-14.9801368713,2.54991579056
41.6761436462,-14.8969926834,2.56078124046
41.6861419678,-14.87961483,2.50659108162
41.6960487366,-14.8623981476,2.38534975052
41.6896896362,-14.8734493256,2.31011843681
41.6958808899,-14.8626880646,2.25483059883
41.6870117188,-14.8781051636,2.18007946014
41.6969680786,-14.8607969284,2.07222676277
41.6887016296,-14.8751649857,2.00358724594
41.6856651306,-14.8804445267,1.94299936295
41.6793289185,-14.891456604,1.88016498089
41.6876144409,-14.8770532608,1.78076136112
41.6883277893,-14.8758192062,1.72860145569
41.6875953674,-14.8770875931,1.67592585087
41.6799430847,-14.8903903961,1.61797058582
41.6941871643,-14.8656339645,1.53021478653
41.6937294006,-14.8664274216,1.48069810867
41.6904411316,-14.8721427917,1.42980539799
41.6922988892,-14.8689136505,1.3833373785
41.6947059631,-14.8647327423,1.29083967209
41.6952590942,-14.8637714386,1.24484264851
41.6973114014,-14.8602046967,1.20007038116
41.691696167,-14.8699617386,1.15173947811
41.70054245,-14.8545875549,1.06602609158
41.7004852295,-14.8546876907,1.02144944668
41.6960945129,-14.8623151779,0.975646853447
41.6967010498,-14.8612594604,0.932018220425
41.6987342834,-14.8577251434,0.845529198647
41.7011642456,-14.8535022736,0.802766561508
41.6932868958,-14.8671960831,0.758182346821
41.703414917,-14.8495931625,0.716809570789
41.6961898804,-14.8621520996,0.630293726921
41.6952514648,-14.86378479,0.587600708008
41.7054100037,-14.8461265564,0.544999361038
41.6967468262,-14.8611841202,0.50234568119
41.6992454529,-14.8568401337,0.416671603918
41.6939620972,-14.86602211,0.374514549971
41.7032241821,-14.8499259949,0.330073297024
41.7016601562,-14.852640152,0.287127643824
41.6988983154,-14.8574447632,0.200963482261
41.6986732483,-14.8578357697,0.157354786992
41.695602417,-14.8631687164,0.114525541663
41.7048912048,-14.8470306396,0.0668320208788
41.6982498169,-14.8585710526,-0.0198527146131
41.5339889526,-15.14407444,-0.102311506867
41.4575233459,-15.2769756317,-0.0931205898523
41.3942947388,-15.3868732452,-0.0875793844461
41.3272628784,-15.5033855438,-0.074740961194
41.2803573608,-15.5849142075,-0.10494287312
41.221786499,-15.6867141724,-0.0879848152399
40.4564552307,-17.9069824219,0.0745002478361
40.4626045227,-17.8962955475,0.118250593543
40.4660606384,-17.8902873993,0.139586701989
40.4648361206,-17.8924198151,0.155726656318
40.4682884216,-17.8864212036,0.17605446279
40.4639434814,-17.8939723969,0.205454871058
40.4656715393,-17.8909664154,0.223213151097
40.4671211243,-17.8884449005,0.240387454629
40.4664039612,-17.8896903992,0.255651175976
40.4663543701,-17.8897800446,0.286661982536
40.4665489197,-17.8894386292,0.302039325237
40.4688110352,-17.8855113983,0.318426311016
40.4670448303,-17.8885822296,0.347108095884
40.4673233032,-17.8880939484,0.361890047789
40.4677429199,-17.8873672485,0.376591742039
40.4663352966,-17.8898105621,0.390444934368
40.4653663635,-17.8914966583,0.418757617474
40.466796875,-17.8890094757,0.433383405209
40.4658851624,-17.8905944824,0.44726100564
40.4675750732,-17.8876571655,0.461691021919
40.4663658142,-17.8897590637,0.489404320717
40.4654464722,-17.8913612366,0.503236114979
40.4651412964,-17.8918876648,0.517150402069
40.4649620056,-17.8922023773,0.531073212624
40.4654579163,-17.891336441,0.558909773827
40.4651412964,-17.8918876648,0.572850048542
40.4654464722,-17.8913612366,0.586764335632
40.4663658142,-17.8897590637,0.600596129894
40.4675750732,-17.8876571655,0.628309428692
40.4658851624,-17.8905944824,0.642739415169
40.4643287659,-17.8933029175,0.65731292963
40.4658584595,-17.8906421661,0.671086370945
40.4643783569,-17.8932132721,0.700318753719
40.4657897949,-17.8907585144,0.714240312576
40.4653816223,-17.8914718628,0.729010164738
40.4651069641,-17.8919467926,0.743860006332
40.4644966125,-17.8930091858,0.774054825306
40.4670257568,-17.8886089325,0.787668704987
40.4639816284,-17.893901825,0.804883539677
40.4615898132,-17.898059845,0.822058737278
40.4647941589,-17.8924922943,0.851404845715
40.4661331177,-17.8901615143,0.866412699223
40.4644012451,-17.8931732178,0.884154856205
40.4655914307,-17.8911056519,0.899674594402
40.4648361206,-17.8924198151,0.934273779392
40.4633979797,-17.8949222565,0.953137695789
40.4630470276,-17.8955287933,0.971280395985
40.462020874,-17.8973140717,0.990540266037
40.4657440186,-17.8908424377,1.02347064018
40.4653167725,-17.8915843964,1.04312431812
40.462184906,-17.8970298767,1.06676435471
40.4593429565,-17.9019641876,1.09077250957
40.4638442993,-17.8941440582,1.12631988525
40.4613952637,-17.8983974457,1.15162980556
40.4624137878,-17.8966274261,1.17235922813
40.4609603882,-17.8991565704,1.19760537148
40.4646606445,-17.8927268982,1.23911058903
40.4581604004,-17.9040222168,1.27569079399
40.4612998962,-17.8985671997,1.29588031769
40.4607200623,-17.8995723724,1.32371222973
40.4562759399,-17.9072990417,1.36029434204
40.457447052,-17.9052600861,1.41677379608
40.4584236145,-17.9035644531,1.44569170475
40.4571647644,-17.9057540894,1.48084008694
40.4522285461,-17.9143333435,1.52630317211
40.4533004761,-17.9124717712,1.55917561054
40.4609947205,-17.8990955353,1.61437308788
40.4554138184,-17.9087963104,1.66953384876
40.4518203735,-17.9150428772,1.72212171555
40.4537620544,-17.9116687775,1.76119828224
40.456413269,-17.9070568085,1.84929811954
40.4554977417,-17.9086475372,1.90446746349
40.4671440125,-17.8884067535,1.91938245296
40.4484596252,-17.9208812714,2.04409837723
40.4738998413,-17.8766670227,2.07574939728
40.4909973145,-17.8469486237,2.07384896278
40.5070991516,-17.8189601898,2.07484769821
40.5227012634,-17.7918453217,2.07701587677
40.5471420288,-17.7493629456,2.11194086075
40.5443840027,-17.7541542053,2.20864057541
40.552772522,-17.7395744324,2.25336122513
40.5678520203,-17.7133674622,2.26300740242
40.574836731,-17.7012290955,2.322524786
40.5879402161,-17.6784515381,2.46752357483
40.5974845886,-17.6618595123,2.53094363213
40.6161384583,-17.6294403076,2.52925491333
40.6519622803,-17.5671730042,2.53455233574
40.6695022583,-17.5366897583,2.53966665268
40.6878433228,-17.5048084259,2.53529644012
40.7058143616,-17.4735679626,2.53321671486
40.7406349182,-17.4130477905,2.54101037979
40.7581825256,-17.3825492859,2.54200005531
40.7755813599,-17.352312088,2.54535889626
40.7933502197,-17.3214244843,2.53813314438
40.8282051086,-17.2608451843,2.53478717804
40.8455276489,-17.2307357788,2.53569674492
40.8628540039,-17.2006168365,2.54500007629
40.880115509,-17.1706199646,2.52769804001
40.9150009155,-17.1099815369,2.54026174545
40.9323577881,-17.0798110962,2.53813290596
40.950088501,-17.0489997864,2.54436278343
40.9675788879,-17.0185947418,2.54299449921
41.002494812,-16.9579048157,2.53741931915
41.0209083557,-16.9259033203,2.54605650902
41.038646698,-16.895072937,2.5441596508
41.0565910339,-16.8638839722,2.54359292984
41.0922660828,-16.8018779755,2.537586689
41.1110191345,-16.76927948,2.54089808464
41.128868103,-16.7382545471,2.53577303886
41.1479415894,-16.7051029205,2.53865647316
41.1858558655,-16.6392040253,2.53841423988
41.2034797668,-16.6085700989,2.52869796753
41.2252998352,-16.5706481934,2.54184675217
41.262260437,-16.5064048767,2.52731895447
41.2874412537,-16.462638855,2.55077981949
41.307674408,-16.4274730682,2.54840517044
41.3277816772,-16.3925228119,2.5443148613
41.3699913025,-16.3191547394,2.54085445404
41.3931388855,-16.278924942,2.54487609863
41.4143333435,-16.2420883179,2.54000711441
41.4388427734,-16.1994857788,2.54551839828
41.4822921753,-16.1239624023,2.5328245163
41.5090065002,-16.0775337219,2.5401968956
41.5396575928,-16.0242576599,2.55707383156
41.5636444092,-15.9825639725,2.55192232132
41.5962486267,-15.9258966446,2.56916022301
41.6411628723,-15.8478317261,2.5426068306
41.6706695557,-15.7965459824,2.54537320137
41.7017402649,-15.7425413132,2.5497379303
41.7321472168,-15.6896905899,2.55026292801
41.7838630676,-15.5998029709,2.52550530434
41.8203582764,-15.5363683701,2.53325462341
41.8629074097,-15.4624156952,2.55035424232
41.9028053284,-15.3930635452,2.55881404877
41.9653892517,-15.2842922211,2.53566288948
42.0141601562,-15.1995201111,2.55188417435
42.0539894104,-15.1302900314,2.54921126366
42.0716400146,-15.0996131897,2.5078496933
42.0799751282,-15.0851278305,2.38414597511
42.0857086182,-15.0751600266,2.32657647133
42.0777435303,-15.0890045166,2.25081562996
42.0750427246,-15.0937023163,2.18455290794
42.0783081055,-15.0880231857,2.06798744202
42.0777015686,-15.0890808105,2.00873756409
42.0721168518,-15.0987873077,1.9449993372
42.075050354,-15.0936880112,1.83745455742
42.0798912048,-15.0852689743,1.78847932816
42.0717048645,-15.0995016098,1.72728633881
42.0718650818,-15.0992193222,1.67550313473
42.0733604431,-15.0966205597,1.57535731792
42.0765953064,-15.0909986496,1.52834165096
42.0765914917,-15.0910100937,1.47926461697
42.0728225708,-15.0975608826,1.42809534073
42.0850830078,-15.0762500763,1.3413361311
42.0779953003,-15.0885648727,1.28996253014
42.0838165283,-15.0784511566,1.24704766273
42.0781784058,-15.0882482529,1.19799983501
42.0815162659,-15.082449913,1.10917663574
42.084777832,-15.0767812729,1.06581819057
42.0759048462,-15.0921993256,1.01782405376
42.0783615112,-15.087928772,0.974778592587
42.0826339722,-15.0805063248,0.888756930828
42.0854377747,-15.0756292343,0.846016645432
42.0858879089,-15.0748472214,0.802766561508
42.0849647522,-15.0764532089,0.759402513504
42.077495575,-15.0894384384,0.672646760941
42.088886261,-15.0696372986,0.630852162838
42.0799713135,-15.0851297379,0.587600708008
42.0811538696,-15.083073616,0.544999361038
42.077922821,-15.0886955261,0.459914416075
42.0894470215,-15.0686645508,0.416095912457
42.089630127,-15.0683450699,0.372979909182
42.0874481201,-15.0721359253,0.330160468817
42.0814781189,-15.0825119019,0.244957074523
42.0846061707,-15.0770730972,0.20068512857
42.0833969116,-15.0791807175,0.157354786992
42.0808181763,-15.0836610794,0.114351913333
42.0838012695,-15.0784778595,0.0245964359492
42.0790863037,-15.0866727829,-0.018053131178
41.9110794067,-15.3786830902,-0.0976334959269
41.8370323181,-15.5073890686,-0.0897213369608
41.7776069641,-15.6106777191,-0.0866027027369
41.7008781433,-15.7440423965,-0.100062683225
41.6512069702,-15.8303699493,-0.0937046557665
41.604675293,-15.9112520218,-0.0864219218493
40.841583252,-18.1255626678,0.0760002285242
40.8459968567,-18.117893219,0.117781087756
40.8498916626,-18.111120224,0.139586701989
40.8482170105,-18.1140327454,0.155288264155
40.8489685059,-18.1127300262,0.189919129014
40.8482322693,-18.1140060425,0.205845609307
40.8495025635,-18.1117973328,0.223213151097
40.8486251831,-18.1133232117,0.238595619798
40.8482513428,-18.1139755249,0.269895106554
40.8501853943,-18.1106128693,0.286661982536
40.850856781,-18.1094417572,0.302331715822
40.8526420593,-18.1063423157,0.318426311016
40.8508720398,-18.1094150543,0.347108095884
40.8516426086,-18.1080818176,0.362114995718
40.8496208191,-18.1115913391,0.375760108232
40.8501663208,-18.1106433868,0.390444934368
40.8491973877,-18.112329483,0.418757617474
40.8506278992,-18.1098423004,0.433383405209
40.8497161865,-18.1114253998,0.44726100564
40.8482551575,-18.1139621735,0.475101321936
40.8497009277,-18.1114559174,0.48933455348
40.8492736816,-18.1121921539,0.503236114979
40.8489723206,-18.1127185822,0.517150402069
40.8487281799,-18.1131401062,0.545000195503
40.8487892151,-18.113035202,0.558927237988
40.8494720459,-18.1118526459,0.57281512022
40.849773407,-18.111328125,0.586712002754
40.8507423401,-18.1096458435,0.614463329315
40.8489265442,-18.1128005981,0.628832042217
40.8497161865,-18.1114253998,0.642739415169
40.8511199951,-18.1089839935,0.656477868557
40.8488807678,-18.1128749847,0.685655236244
40.8482093811,-18.1140460968,0.700318753719
40.8496208191,-18.1115913391,0.714240312576
40.8492126465,-18.1123046875,0.729010164738
40.8508720398,-18.1094150543,0.742892324924
40.8502426147,-18.1105079651,0.772952318192
40.8479957581,-18.1144161224,0.789422988892
40.8478126526,-18.1147346497,0.804883539677
40.8478927612,-18.1145954132,0.836059391499
40.8486251831,-18.1133232117,0.851404845715
40.8476524353,-18.1150131226,0.86828571558
40.8482322693,-18.1140060425,0.884154856205
40.8498573303,-18.1111793518,0.916059076786
40.8486671448,-18.1132526398,0.934273779392
40.8476715088,-18.1149806976,0.95268368721
40.8468780518,-18.116361618,0.971280395985
40.8436698914,-18.1219367981,0.992964327335
40.8470077515,-18.1161327362,1.02656078339
40.8461875916,-18.1175632477,1.04683375359
40.8460121155,-18.1178607941,1.06676435471
40.8427619934,-18.1235160828,1.09133172035
40.8484802246,-18.1135730743,1.12514424324
40.8452262878,-18.1192302704,1.15162980556
40.846244812,-18.1174602509,1.17235922813
40.8451766968,-18.1193141937,1.19697618484
40.8428916931,-18.1232891083,1.22442674637
40.8464393616,-18.1171245575,1.26766133308
40.8429412842,-18.1232032776,1.29997241497
40.844909668,-18.1197814941,1.3230175972
40.832698822,-18.141002655,1.37514364719
40.8412780762,-18.1260929108,1.41677379608
40.8415870667,-18.1255569458,1.44717800617
40.8406677246,-18.127155304,1.48159480095
40.8402252197,-18.1279239655,1.51634454727
40.8454055786,-18.1189212799,1.57493031025
40.8478279114,-18.1147117615,1.60638678074
40.8389511108,-18.1301383972,1.670342803
40.8356513977,-18.1358757019,1.72212171555
40.8375930786,-18.1325016022,1.76119828224
40.8420944214,-18.1246738434,1.84336185455
40.8424110413,-18.1241226196,1.89418148994
40.8355140686,-18.1361103058,1.97307610512
40.8334999084,-18.1396121979,2.03972530365
40.8572769165,-18.0982875824,2.07753157616
40.8735160828,-18.07006073,2.07924175262
40.8909301758,-18.0397930145,2.07484769821
40.9065284729,-18.0126781464,2.07701587677
40.9272346497,-17.9766902924,2.13048458099
40.9269638062,-17.9771595001,2.21517562866
40.9354095459,-17.9624824524,2.25993919373
40.9515190125,-17.9344825745,2.2639529705
40.9722824097,-17.8983898163,2.34476566315
40.9688835144,-17.9043006897,2.48770999908
40.9813156128,-17.8826904297,2.53094363213
41.0002098083,-17.8498535156,2.5273141861
41.0357933044,-17.7880039215,2.53455233574
41.0534248352,-17.7573566437,2.53868484497
41.0712394714,-17.726392746,2.54022073746
41.0898017883,-17.6941299438,2.53124117851
41.1245269775,-17.6337738037,2.54001784325
41.1418571472,-17.6036529541,2.54498362541
41.1598892212,-17.5723133087,2.53440093994
41.1768684387,-17.5428009033,2.54711103439
41.2119293213,-17.4818592072,2.5407834053
41.2293586731,-17.4515686035,2.53569674492
41.2466850281,-17.4214496613,2.53399991989
41.2639961243,-17.3913612366,2.5336971283
41.2988586426,-17.3307685852,2.54126048088
41.3164672852,-17.3001613617,2.54611349106
41.333568573,-17.2704353333,2.53639316559
41.3514099121,-17.2394294739,2.54299449921
41.3862571716,-17.1788578033,2.53642892838
41.4047393799,-17.146736145,2.54605650902
41.4225654602,-17.1157550812,2.54514431953
41.440990448,-17.0837249756,2.54948282242
41.4760971069,-17.0227108002,2.537586689
41.4948501587,-16.9901123047,2.54089808464
41.5137329102,-16.9572925568,2.54350042343
41.5492286682,-16.8955993652,2.52933216095
41.5684547424,-16.8621807098,2.53080582619
41.5929946899,-16.8195266724,2.56179094315
41.6087913513,-16.7920742035,2.53996706009
41.6464653015,-16.7265892029,2.52917337418
41.6687393188,-16.6878738403,2.53881311417
41.6908988953,-16.6493625641,2.54566454887
41.7109832764,-16.6144542694,2.54159593582
41.7531471252,-16.5411682129,2.53818130493
41.7762680054,-16.5009784698,2.54222726822
41.7945365906,-16.4692249298,2.5268881321
41.8259162903,-16.414686203,2.55677676201
41.850528717,-16.3719062805,2.56020021439
41.8979988098,-16.2893981934,2.55613183975
41.9240493774,-16.2441215515,2.55873179436
41.9511985779,-16.1969337463,2.56257128716
41.9975852966,-16.1163043976,2.54318571091
42.0256080627,-16.0675983429,2.5441827774
42.0551300049,-16.0162887573,2.54692769051
42.0865325928,-15.9617042542,2.55203604698
42.1373023987,-15.8734607697,2.52845311165
42.1704177856,-15.8159074783,2.53135633469
42.2093887329,-15.7481708527,2.54404473305
42.2453308105,-15.6857013702,2.54752588272
42.2848472595,-15.6170148849,2.55534100533
42.3555221558,-15.4941749573,2.54703831673
42.3979949951,-15.4203538895,2.55188417435
42.4481391907,-15.33319664,2.56656646729
42.4550857544,-15.3211212158,2.50722026825
42.4646034241,-15.3045778275,2.38534975052
42.4570350647,-15.3177318573,2.308355093
42.4534072876,-15.3240385056,2.23934412003
42.4435768127,-15.3411245346,2.16386294365
42.4621429443,-15.3088569641,2.06798744202
42.458114624,-15.3158588409,2.00461745262
42.4507675171,-15.3286294937,1.93899941444
42.4588813782,-15.3145217896,1.83745455742
42.4557266235,-15.3200054169,1.78030741215
42.4559860229,-15.3195562363,1.72772467136
42.4538917542,-15.3231954575,1.673812747
42.458114624,-15.3158588409,1.57613873482
42.4576568604,-15.3166542053,1.52609395981
42.4618186951,-15.3094167709,1.48033964634
42.4594650269,-15.3135080338,1.43014752865
42.4670181274,-15.3003816605,1.34010004997
42.4623069763,-15.3085708618,1.29025483131
42.4628562927,-15.3076171875,1.24429130554
42.4615325928,-15.3099193573,1.19774103165
42.4658355713,-15.3024396896,1.10940158367
42.4690971375,-15.2967672348,1.06602609158
42.4616966248,-15.3096294403,1.01858735085
42.462688446,-15.3079090118,0.974952280521
42.466960907,-15.3004827499,0.888896107674
42.4687767029,-15.2973232269,0.845894813538
42.4692268372,-15.296544075,0.802662014961
42.4717788696,-15.2921056747,0.759925425053
42.471786499,-15.2920951843,0.673745810986
42.4737167358,-15.2887392044,0.630921900272
42.4653015137,-15.3033638,0.587653040886
42.4643058777,-15.30509758,0.502380609512
42.4737167358,-15.2887392044,0.459076821804
42.473777771,-15.2886333466,0.416043579578
42.4719696045,-15.2917728424,0.373189181089
42.4672431946,-15.2999916077,0.287754833698
42.4687767029,-15.2973232269,0.244103953242
42.4674530029,-15.2996244431,0.200963482261
42.4662437439,-15.3017272949,0.15766762197
42.4680595398,-15.2985696793,0.0689309686422
42.4676322937,-15.2993116379,0.0245964359492
42.4740943909,-15.2880821228,-0.0232269931585
42.4699287415,-15.2953205109,-0.0665791779757
42.3549957275,-15.4950876236,-0.0922741442919
42.2796516418,-15.6260414124,-0.088277593255
42.1943054199,-15.7743873596,-0.0724164396524
42.1408081055,-15.8673725128,-0.107574895024
42.0744667053,-15.9826784134,-0.0921786576509
42.0220947266,-16.0737056732,-0.0832156687975
41.9715080261,-16.1616287231,-0.102118328214
41.2276153564,-18.3576545715,0.0710002332926
41.2353286743,-18.344247818,0.0984905809164
41.2389907837,-18.337884903,0.120597943664
41.2394638062,-18.3370571136,0.156165018678
41.2397575378,-18.3365497589,0.173518761992
41.2411422729,-18.3341464996,0.191546067595
41.2404212952,-18.3353996277,0.2074085325
41.239440918,-18.3370990753,0.238953992724
41.2405891418,-18.3351078033,0.255651175976
41.240486145,-18.3352813721,0.271197378635
41.2407341003,-18.3348560333,0.302039325237
41.2405967712,-18.3350925446,0.31704813242
41.2406005859,-18.3350868225,0.331992149353
41.2412261963,-18.3339996338,0.347108095884
41.2399749756,-18.3361759186,0.375760108232
41.2410087585,-18.3343753815,0.390635728836
41.2407073975,-18.3348999023,0.40486612916
41.2414741516,-18.333568573,0.433522552252
41.2400665283,-18.3360099792,0.44726100564
41.2397727966,-18.3365211487,0.461272925138
41.2405967712,-18.3350925446,0.475449949503
41.2396278381,-18.3367767334,0.503236114979
41.2398223877,-18.3364372253,0.517185330391
41.2396392822,-18.3367538452,0.531090676785
41.2390823364,-18.3377246857,0.545000195503
41.2398223877,-18.3364372253,0.57281512022
41.2396278381,-18.3367767334,0.586764335632
41.2405471802,-18.3351745605,0.600596129894
41.238609314,-18.3385467529,0.614899098873
41.2400665283,-18.3360099792,0.642739415169
41.2385101318,-18.3387184143,0.65731292963
41.2395477295,-18.3369140625,0.671242833138
41.2392349243,-18.3374595642,0.685655236244
41.2399749756,-18.3361759186,0.714240312576
41.2395629883,-18.3368873596,0.729010164738
41.2412261963,-18.3339996338,0.742892324924
41.2386741638,-18.3384361267,0.759043574333
41.2407341003,-18.3348560333,0.787961065769
41.2381629944,-18.3393192291,0.804883539677
41.2381286621,-18.3393802643,0.820430874825
41.238243103,-18.3391799927,0.836059391499
41.2366485596,-18.3419532776,0.853196680546
41.2413368225,-18.3338031769,0.881810426712
41.2397727966,-18.3365211487,0.899674594402
41.2379493713,-18.3396930695,0.918172180653
41.2402458191,-18.3357048035,0.950413763523
41.2394294739,-18.3371200562,0.968933045864
41.2383842468,-18.3389396667,0.988116204739
41.2353897095,-18.3441429138,1.01000022888
41.2352218628,-18.3444309235,1.02913606167
41.2359466553,-18.3431720734,1.06730902195
41.2331123352,-18.3481006622,1.09133172035
41.2358856201,-18.3432788849,1.10825228691
41.2331848145,-18.3479747772,1.1333732605
41.23620224,-18.3427276611,1.17297494411
41.2351417542,-18.3445720673,1.19760537148
41.2328605652,-18.3485374451,1.22506952286
41.2335700989,-18.3473014832,1.24829554558
41.2351150513,-18.3446178436,1.29656243324
41.2381324768,-18.3393764496,1.31746029854
41.233631134,-18.3471984863,1.35393035412
41.2247962952,-18.3625526428,1.40101456642
41.2275505066,-18.3577690125,1.42555010319
41.2346153259,-18.3454837799,1.47329294682
41.2286529541,-18.3558502197,1.52094089985
41.230304718,-18.35297966,1.55218136311
41.2247009277,-18.3627166748,1.60329866409
41.2325286865,-18.3491172791,1.66144359112
41.2337226868,-18.3470363617,1.70000457764
41.229057312,-18.3551464081,1.75788223743
41.2402191162,-18.3357467651,1.77029788494
41.2337913513,-18.3469219208,1.89075291157
41.2413253784,-18.3338241577,1.91938245296
41.2269935608,-18.3587322235,2.02835536003
41.2343482971,-18.3459510803,2.06367015839
41.2480812073,-18.3220844269,2.07574939728
41.2800178528,-18.2665748596,2.08028554916
41.2966804504,-18.2376155853,2.07792949677
41.312412262,-18.2102718353,2.078561306
41.308807373,-18.2165355682,2.17406225204
41.325592041,-18.1873626709,2.26087880135
41.341709137,-18.1593494415,2.26489853859
41.3528709412,-18.1399497986,2.29874825478
41.3654212952,-18.1181335449,2.44445323944
41.3715400696,-18.1075000763,2.53190946579
41.3904418945,-18.0746459961,2.52828454971
41.4079627991,-18.0441894531,2.53466391563
41.4261436462,-18.012588501,2.53455233574
41.4620246887,-17.9502239227,2.53529644012
41.4792175293,-17.9203414917,2.54309368134
41.4973945618,-17.8887462616,2.53741955757
41.5149993896,-17.8581466675,2.53803277016
41.5497207642,-17.7978038788,2.5463552475
41.5673599243,-17.7671432495,2.54312086105
41.5849151611,-17.7366256714,2.53926324844
41.602142334,-17.7066860199,2.54877877235
41.6370391846,-17.6460342407,2.54200005531
41.6544189453,-17.6158256531,2.54169583321
41.6718292236,-17.5855636597,2.54278230667
41.6892356873,-17.5553073883,2.54225897789
41.7240104675,-17.4948692322,2.53838539124
41.7417602539,-17.464012146,2.54299449921
41.7592582703,-17.4336051941,2.54101014137
41.7771644592,-17.4024772644,2.54435133934
41.8122215271,-17.3415431976,2.53726601601
41.8304862976,-17.309797287,2.54064798355
41.848865509,-17.2778587341,2.54335546494
41.8841171265,-17.216583252,2.53216552734
41.9026641846,-17.1843452454,2.53287529945
41.9218521118,-17.1509990692,2.53673410416
41.9414749146,-17.1168899536,2.54176425934
41.9778289795,-17.0537052155,2.5296432972
41.9981193542,-17.0184364319,2.53432917595
42.018951416,-16.9822273254,2.54006123543
42.0388717651,-16.9476013184,2.53937220573
42.0810470581,-16.8743000031,2.54475069046
42.1000671387,-16.8412361145,2.53615808487
42.1199531555,-16.806678772,2.53043580055
42.1489295959,-16.7563095093,2.55956554413
42.183681488,-16.6959095001,2.5225148201
42.2112808228,-16.6479377747,2.53945612907
42.2367706299,-16.6036338806,2.54648542404
42.2628211975,-16.5583572388,2.55317759514
42.2902526855,-16.5106773376,2.56200242043
42.3355407715,-16.4319591522,2.54536890984
42.3645706177,-16.3815040588,2.55297994614
42.3921394348,-16.3335857391,2.55436658859
42.4242515564,-16.2777748108,2.5654592514
42.4730377197,-16.1929740906,2.54284358025
42.5030593872,-16.140794754,2.54271578789
42.5373344421,-16.0812244415,2.55000424385
42.5733528137,-16.0186195374,2.55841636658
42.6272163391,-15.9249954224,2.53055548668
42.6676635742,-15.8546934128,2.54075288773
42.7115020752,-15.7784986496,2.55416679382
42.7603263855,-15.6936378479,2.57313418388
42.8251190186,-15.5810203552,2.54406881332
42.8535766602,-15.5315589905,2.52043604851
42.8521156311,-15.5341005325,2.4486246109
42.846988678,-15.543006897,2.37331342697
42.8580551147,-15.5237722397,2.25941944122
42.8529472351,-15.5326528549,2.18958568573
42.8428192139,-15.5502595901,2.11519360542
42.8510284424,-15.535984993,2.00770735741
42.8488922119,-15.5397024155,1.94799935818
42.8439064026,-15.5483646393,1.88646757603
42.8474731445,-15.5421676636,1.83557665348
42.8481292725,-15.5410242081,1.7294781208
42.8510246277,-15.5359964371,1.6801520586
42.8502388,-15.537358284,1.62813901901
42.8443336487,-15.5476236343,1.57262229919
42.8572921753,-15.5250997543,1.48428177834
42.8474731445,-15.5421648026,1.42843735218
42.8549804688,-15.5291213989,1.38594186306
42.853099823,-15.5323848724,1.33731889725
42.8551254272,-15.5288686752,1.24539387226
42.8600730896,-15.5202703476,1.20214092731
42.8535079956,-15.5316791534,1.15319097042
42.8537559509,-15.5312461853,1.10827684402
42.860370636,-15.5197496414,1.02183103561
42.8564758301,-15.526517868,0.976167798042
42.8561019897,-15.5271673203,0.932174682617
42.8563232422,-15.5267829895,0.888617753983
42.8590812683,-15.5219898224,0.802557528019
42.8631248474,-15.51496315,0.760099709034
42.861328125,-15.5180864334,0.716670036316
42.8626365662,-15.5158138275,0.673798143864
42.8646278381,-15.5123491287,0.587967216969
42.863319397,-15.514623642,0.544999361038
42.8626327515,-15.5158157349,0.502101361752
42.8660621643,-15.5098590851,0.458937197924
42.8628196716,-15.5154924393,0.373119413853
42.8611373901,-15.5184173584,0.330247610807
42.8600730896,-15.5202655792,0.287232160568
42.860118866,-15.5201873779,0.24386022985
42.8551177979,-15.5288801193,0.158136948943
42.8530387878,-15.5324935913,0.115046486259
42.860370636,-15.5197496414,0.0681677013636
42.8589630127,-15.5221996307,0.0241805743426
42.7050819397,-15.7896614075,-0.0691205412149
42.6207008362,-15.9363203049,-0.0959016829729
42.564994812,-16.0331478119,-0.0957186371088
42.4903869629,-16.1628189087,-0.0778191238642
42.447593689,-16.237203598,-0.0789190083742
42.3839073181,-16.3478927612,-0.0907198935747
42.3509254456,-16.4052181244,-0.0923566967249
41.6180992126,-18.5763187408,0.0740002542734
41.62159729,-18.5702381134,0.114964261651
41.6254692078,-18.5635070801,0.136862769723
41.6264610291,-18.5617847443,0.155288264155
41.6271972656,-18.5605049133,0.173096165061
41.6260147095,-18.5625572205,0.205454871058
41.6277427673,-18.559551239,0.223213151097
41.6287307739,-18.5578403473,0.240029081702
41.6312904358,-18.5533885956,0.257703304291
41.6284255981,-18.5583648682,0.286661982536
41.6286239624,-18.5580234528,0.302039325237
41.6284866333,-18.5582618713,0.31704813242
41.630897522,-18.554069519,0.333286225796
41.6274528503,-18.5600566864,0.360990256071
41.6278648376,-18.559343338,0.375760108232
41.6284103394,-18.5583953857,0.390444934368
41.6285972595,-18.5580673218,0.40486612916
41.6293640137,-18.5567378998,0.433522552252
41.6279602051,-18.559179306,0.44726100564
41.6296463013,-18.5562419891,0.461691021919
41.6284370422,-18.5583438873,0.489404320717
41.6275177002,-18.5599460602,0.503236114979
41.6272163391,-18.5604724884,0.517150402069
41.6270332336,-18.5607872009,0.531073212624
41.6270332336,-18.5607872009,0.558927237988
41.6302032471,-18.5552749634,0.57264059782
41.6255264282,-18.5634078979,0.586973667145
41.6279411316,-18.5592079163,0.600665867329
41.627166748,-18.560552597,0.628832042217
41.628452301,-18.5583190918,0.642617583275
41.6268959045,-18.5610294342,0.657173752785
41.6279296875,-18.5592269897,0.671086370945
41.6284103394,-18.5583953857,0.699555516243
41.6278648376,-18.559343338,0.714240312576
41.6274528503,-18.5600566864,0.729010164738
41.6271781921,-18.5605316162,0.743860006332
41.6265678406,-18.5615940094,0.774054825306
41.6286239624,-18.5580234528,0.787961065769
41.6260566711,-18.5624866486,0.804883539677
41.6236610413,-18.5666446686,0.822058737278
41.626865387,-18.5610771179,0.851404845715
41.6277427673,-18.559551239,0.866787314415
41.6264724731,-18.5617580414,0.884154856205
41.6276626587,-18.5596904755,0.899674594402
41.6231269836,-18.5675735474,0.920707881451
41.6254692078,-18.5635070801,0.953137695789
41.6251182556,-18.5641155243,0.971280395985
41.6236572266,-18.56665802,0.991025090218
41.6278152466,-18.5594272614,1.02347064018
41.6244277954,-18.5653152466,1.04683375359
41.6238365173,-18.5663414001,1.06730902195
41.6210021973,-18.5712680817,1.09133172035
41.6209182739,-18.5714168549,1.11226737499
41.6238670349,-18.5662899017,1.15102791786
41.6240959167,-18.5658950806,1.17297494411
41.6230316162,-18.567741394,1.19760537148
41.6123466492,-18.5863132477,1.23921084404
41.6246795654,-18.5648765564,1.26766133308
41.6233711243,-18.5671520233,1.29588031769
41.6227912903,-18.568157196,1.32371222973
41.6208152771,-18.5715923309,1.35534465313
41.6270027161,-18.5608386993,1.40068399906
41.6231651306,-18.5675086975,1.43974661827
41.6192359924,-18.574338913,1.48084008694
41.6213531494,-18.5706615448,1.50945007801
41.6156845093,-18.5805110931,1.55839848518
41.6206665039,-18.5718536377,1.62076222897
41.6177787781,-18.5768718719,1.66872477531
41.6213302612,-18.5707015991,1.70082366467
41.6141586304,-18.5831623077,1.76617252827
41.6099128723,-18.5905437469,1.8264888525
41.6201400757,-18.5727672577,1.89589583874
41.6299629211,-18.5556926727,1.91678440571
41.6129493713,-18.5852622986,2.03535223007
41.6222381592,-18.5691204071,2.06367015839
41.6506652832,-18.5197143555,2.08373570442
41.6691703796,-18.4875450134,2.07484769821
41.6849746704,-18.4600791931,2.07610249519
41.7135124207,-18.4104804993,2.09061574936
41.7075309753,-18.4208755493,2.20303893089
41.7138214111,-18.4099388123,2.25899958611
41.7304115295,-18.381105423,2.26017093658
41.7406044006,-18.3633861542,2.29969954491
41.7527618408,-18.3422584534,2.44829845428
41.7596893311,-18.3302192688,2.52997779846
41.7785720825,-18.2973957062,2.5263440609
41.7961921692,-18.2667732239,2.53174066544
41.8317642212,-18.2049427032,2.53770327568
41.8493080139,-18.174446106,2.54219031334
41.8673439026,-18.1431026459,2.54013061523
41.8854255676,-18.1116733551,2.53543901443
41.9206199646,-18.0504989624,2.5350382328
41.9379577637,-18.020368576,2.53838562965
41.9551124573,-17.9905529022,2.54711103439
41.9729652405,-17.9595222473,2.53327155113
42.0075149536,-17.8994731903,2.54569530487
42.0249290466,-17.8692035675,2.53399991989
42.0423278809,-17.8389625549,2.54369544983
42.0597381592,-17.8087024689,2.54378175735
42.0944671631,-17.748336792,2.5391304493
42.1122055054,-17.717508316,2.54535889626
42.1294441223,-17.687543869,2.53901648521
42.147026062,-17.6569843292,2.5390253067
42.1825904846,-17.59516716,2.54111790657
42.2005462646,-17.5639591217,2.54219007492
42.2185668945,-17.5326366425,2.54261136055
42.2369613647,-17.5006656647,2.5453119278
42.2730941772,-17.4378643036,2.54089808464
42.2905578613,-17.4075126648,2.53287529945
42.3094673157,-17.3746452332,2.53481149673
42.3293647766,-17.3400592804,2.54176425934
42.3663673401,-17.2757453918,2.53342533112
