0.62874907 1.43949699 2.53619933
0.61089516 1.49622917 2.55487370
0.58654326 1.57360947 2.52722859
0.56881553 1.62994063 2.53881574
0.55067003 1.68759954 2.54974365
0.53409123 1.74027991 2.55117226
0.51440918 1.80282140 2.56388330
0.48544252 1.89486527 2.53977942
0.46581206 1.95724273 2.54573464
0.44837925 2.01263690 2.54108667
0.42653903 2.08203602 2.55037141
0.39504617 2.18210721 2.51994872
0.37204924 2.25518179 2.52616525
0.34398040 2.34437275 2.54530072
0.31820598 2.42627311 2.55372953
0.28716755 2.52490044 2.57418990
0.25327125 2.63260865 2.52672935
0.23093654 2.70357895 2.51511621
0.23511486 2.69030213 2.43469858
0.23528655 2.68975639 2.36654592
0.22960281 2.70781708 2.24886012
0.23337975 2.69581556 2.17728257
0.23588982 2.68783951 2.11038089
0.20335855 2.79121041 2.11535048
0.16561402 2.91114664 2.12649941
0.15274543 2.95203757 0.88659906
0.16589187 2.91026378 0.35351780
0.16893120 2.90060616 0.16157739
0.17049073 2.89565063 0.06486209
0.20758566 2.77777839 -0.10310937
0.38265133 2.22149277 -0.11011650
0.42420968 2.08943772 -0.10157879
0.46971384 1.94484448 -0.08329143
0.49466383 1.86556387 -0.08572800
0.52948111 1.75492907 -0.10322334
0.55543441 1.67246020 -0.09642406
1.23645413 -0.26905623 0.18950017
1.23251152 -0.25653100 0.21096633
1.22946239 -0.24684443 0.22998475
1.23103583 -0.25184286 0.25348333
1.22899842 -0.24537052 0.26945305
1.23068964 -0.25074315 0.27940112
1.22818470 -0.24278547 0.29532295
1.22845101 -0.24363117 0.31886998
1.22819829 -0.24282838 0.33089554
1.22645438 -0.23728821 0.34445018
1.22690749 -0.23872787 0.35526371
1.22529089 -0.23359197 0.36811528
1.22674847 -0.23822272 0.38867345
1.22608435 -0.23611274 0.40008894
1.22623205 -0.23658185 0.41070437
1.22573435 -0.23500089 0.42170852
1.22632885 -0.23688942 0.44237408
1.22624683 -0.23662904 0.45286027
1.22551382 -0.23430011 0.46358389
1.22561586 -0.23462452 0.47382846
1.22625566 -0.23665695 0.49410120
1.22619629 -0.23646826 0.50433213
1.22548318 -0.23420306 0.51464534
1.22599554 -0.23583068 0.53486031
1.22602212 -0.23591511 0.54500014
1.22599554 -0.23583068 0.55514002
1.22591591 -0.23557751 0.56527674
1.22578311 -0.23515560 0.57540733
1.22595656 -0.23570675 0.59581196
1.22536516 -0.23382787 0.60583574
1.22561586 -0.23462452 0.61617184
1.22640574 -0.23713379 0.62683392
1.22624683 -0.23662898 0.63714004
1.22576439 -0.23509641 0.65776825
1.22573435 -0.23500083 0.66829181
1.22564685 -0.23472299 0.67884606
1.22608435 -0.23611268 0.68991137
1.22561407 -0.23461860 0.71120948
1.22529089 -0.23359187 0.72188503
1.22605085 -0.23600619 0.73380953
1.22730601 -0.23999380 0.74652684
1.22564781 -0.23472606 0.76754665
1.22584713 -0.23535907 0.77950388
1.22652638 -0.23751716 0.79233295
1.22767234 -0.24115767 0.80612510
1.22763777 -0.24104793 0.81843418
1.22680557 -0.23840392 0.84236395
1.22681129 -0.23842217 0.85532087
1.22673416 -0.23817702 0.86836815
1.22735322 -0.24014367 0.88300014
1.22761416 -0.24097283 0.89728624
1.22532630 -0.23370467 0.92080110
1.22681546 -0.23843558 0.93867195
1.22693956 -0.23882948 0.95396018
1.22817051 -0.24274021 0.97232002
1.22806251 -0.24239720 0.98793602
1.22681379 -0.23842996 1.01761973
1.22799063 -0.24216859 1.03801823
1.22787285 -0.24179466 1.05541408
1.22963393 -0.24738948 1.07896638
1.23054183 -0.25027370 1.10082877
1.22906697 -0.24558833 1.13614142
1.22886240 -0.24493815 1.15643895
1.22911251 -0.24573264 1.17908382
1.23098636 -0.25168574 1.20862854
1.23004234 -0.24868667 1.22876704
1.22824836 -0.24298741 1.27163160
1.23217762 -0.25547028 1.31488669
1.23227179 -0.25576955 1.34363568
1.23141253 -0.25303981 1.36938846
1.22740972 -0.24032328 1.38135445
1.23475325 -0.26365259 1.44948006
1.22643685 -0.23723243 1.47700500
1.23374295 -0.26044321 1.55474317
1.23202705 -0.25499207 1.58596265
1.23484206 -0.26393476 1.64614630
1.22687232 -0.23861599 1.69083452
1.23242402 -0.25625297 1.77994311
1.23277736 -0.25737557 1.83920765
1.22779977 -0.24156258 1.86324620
1.23564720 -0.26649281 1.98927224
1.21773171 -0.20957732 2.06542277
1.21247625 -0.19288154 2.10132384
1.20021403 -0.15392593 2.06859279
1.19150531 -0.12625945 2.06935000
1.17498076 -0.07376296 2.07889032
1.17031455 -0.05893926 2.25794268
1.16119564 -0.02996957 2.26262736
1.15590227 -0.01315320 2.33254313
1.14589107 0.01865120 2.52827811
1.13552594 0.05157999 2.53444862
1.12508821 0.08473927 2.53902531
1.11434567 0.11886705 2.53404379
1.10412264 0.15134427 2.54535890
1.08283103 0.21898489 2.53127408
1.07243896 0.25199923 2.53478718
1.06200910 0.28513363 2.53569674
1.05157602 0.31827810 2.53500009
1.03065026 0.38475671 2.54078341
1.02027380 0.41772109 2.53427005
1.00951946 0.45188627 2.54810858
0.99929112 0.48438063 2.53539705
0.97802722 0.55193317 2.54001760
0.96775150 0.58457798 2.53147769
0.95632154 0.62088943 2.54803205
0.94578785 0.65435374 2.54317498
0.93481767 0.68920451 2.54555631
0.91358805 0.75664842 2.53563786
0.90245152 0.79202765 2.53701687
0.89156961 0.82659817 2.53384113
0.88017905 0.86278445 2.53577304
0.85793841 0.93344009 2.52985477
0.84619850 0.97073632 2.53153443
0.83427978 1.00860059 2.53338933
0.81926668 1.05629539 2.56060004
0.79746628 1.12555242 2.53881311
0.78424835 1.16754413 2.54475069
0.77304882 1.20312369 2.53434539
0.76095575 1.24154174 2.52953696
0.74337631 1.29738939 2.55956554
0.72216308 1.36478114 2.52426410
0.70643717 1.41474032 2.53599215
0.68987107 1.46736872 2.54991412
0.67480606 1.51522839 2.55317760
0.65812629 1.56821787 2.56284094
0.63153863 1.65268350 2.54291129
0.61460346 1.70648444 2.54812574
0.59839118 1.75798881 2.54797745
0.58112478 1.81284201 2.55048704
0.56048393 1.87841535 2.56480193
0.53528476 1.95846999 2.52309346
0.51595718 2.01987123 2.52622366
0.49029908 2.10138369 2.54963994
0.47111997 2.16231322 2.54692221
0.44776720 2.23650217 2.55601120
0.41564378 2.33855414 2.52006674
0.38463989 2.43704963 2.54503083
0.36021179 2.51465464 2.54663563
0.32889777 2.61413503 2.56463814
0.29468873 2.72281289 2.51450038
0.29479468 2.72247648 2.44432759
0.29831719 2.71128583 2.36772156
0.30044040 2.70454049 2.29670167
0.30332381 2.69538045 2.22593331
0.29686013 2.71591473 2.11567998
0.27098629 2.79811263 2.10710979
0.23483683 2.91295481 2.11549926
0.21944372 2.96185684 0.98395443
0.23089175 2.92548776 0.73613203
0.22971539 2.92922497 0.68845212
0.22818860 2.93407536 0.64076352
0.22691159 2.93813229 0.49705753
0.22818860 2.93407536 0.44923508
0.23142006 2.92380953 0.30601823
0.23094751 2.92531061 0.16088156
0.42677760 2.30318332 -0.09120138
0.47846550 2.13897753 -0.07519759
0.50650138 2.04991102 -0.08009131
0.54505843 1.92742026 -0.10257132
0.57441896 1.83414543 -0.09707607
0.60466534 1.73805654 -0.08681257
1.30007470 -0.23973092 0.18035321
1.29827034 -0.23399737 0.21193598
1.29495168 -0.22345249 0.23139317
1.29389298 -0.22008847 0.24627443
1.29555511 -0.22536978 0.26903042
1.29477990 -0.22290668 0.28265503
1.29281151 -0.21665189 0.29766735
1.29296732 -0.21714704 0.30937260
1.29307246 -0.21748130 0.33260566
1.29273939 -0.21642283 0.34445018
1.29147947 -0.21241933 0.35711783
1.29186320 -0.21363872 0.36782292
1.29216361 -0.21459326 0.38944989
1.29178691 -0.21339628 0.40057278
1.29134703 -0.21199872 0.41160420
1.29143226 -0.21226947 0.42212436
1.29143131 -0.21226650 0.44306868
1.29104948 -0.21105298 0.45364243
1.29150176 -0.21249007 0.46372306
1.29100716 -0.21091875 0.47419408
1.29164362 -0.21294081 0.49436268
1.29188240 -0.21369973 0.50447166
1.29146862 -0.21238506 0.51469767
1.29070091 -0.20994560 0.52489805
1.29017961 -0.20828918 0.53498250
1.29077995 -0.21019663 0.55505276
1.29100096 -0.21089897 0.56513715
1.29056931 -0.20952733 0.57514566
1.29038513 -0.20894194 0.58517987
1.29135180 -0.21201372 0.60573119
1.29100716 -0.21091875 0.61580622
1.29060984 -0.20965621 0.62585974
1.29045641 -0.20916867 0.63604504
1.29084003 -0.21038766 0.64658433
1.29025769 -0.20853724 0.66704434
1.28988457 -0.20735152 0.67727137
1.29062176 -0.20969403 0.68845981
1.29042375 -0.20906498 0.69899750
1.29074502 -0.21008547 0.71010691
1.29005194 -0.20788328 0.73133737
1.28961718 -0.20650175 0.74196887
1.29081571 -0.21031040 0.75465852
1.29109228 -0.21118903 0.76647156
1.29213226 -0.21449365 0.77950388
1.29094052 -0.21070679 0.80165100
1.29256225 -0.21586007 0.81632107
1.29192364 -0.21383072 0.82774955
1.29255557 -0.21583875 0.84145594
1.29065609 -0.20980307 0.86400491
1.29129827 -0.21184361 0.87850016
1.29184043 -0.21356645 0.89316589
1.29202652 -0.21415770 0.90746492
1.29362571 -0.21923910 0.92515820
1.29285157 -0.21677941 0.93811280
1.29178369 -0.21338622 0.96585441
1.29194975 -0.21391390 0.98191786
1.29389226 -0.22008608 1.00305235
1.29683149 -0.22942546 1.02768886
1.29519522 -0.22422619 1.04058945
1.29212594 -0.21447359 1.06759119
1.29397202 -0.22033948 1.09196281
1.29388678 -0.22006886 1.11114669
1.29535162 -0.22472310 1.13614142
1.29493845 -0.22341025 1.15571964
1.29425752 -0.22124662 1.19748127
1.29475105 -0.22281508 1.22272933
1.29426086 -0.22125724 1.24516475
1.29434407 -0.22152185 1.27085447
1.29883122 -0.23577975 1.31646264
1.29963970 -0.23834887 1.34842753
1.29421115 -0.22109930 1.38381183
1.29801512 -0.23318650 1.43455744
1.29627013 -0.22764178 1.45998967
1.29701698 -0.23001499 1.49990237
1.30018127 -0.24006961 1.55560040
1.29384863 -0.21994746 1.60241532
1.29631507 -0.22778466 1.66281176
1.29765475 -0.23204131 1.72023773
1.29765511 -0.23204274 1.77275288
1.29918814 -0.23691373 1.84011400
1.28773773 -0.20053010 1.87789106
1.29332364 -0.21827944 1.99140692
1.29615438 -0.22727393 2.09194279
1.28401828 -0.18871142 2.06542277
1.27632058 -0.16425155 2.07768583
1.26604009 -0.13158517 2.06383729
1.24929285 -0.07837022 2.07148385
1.24088681 -0.05166011 2.07406068
1.23654258 -0.03785601 2.25696826
1.21836269 0.01991087 2.26677418
1.21245456 0.03868432 2.33144140
1.21280158 0.03758146 2.54111814
1.20178604 0.07258350 2.53345823
1.19113600 0.10642433 2.53207755
1.17001176 0.17354698 2.52941990
1.15971196 0.20627508 2.53713536
1.14914286 0.23985869 2.53127408
1.13880503 0.27270719 2.53978419
1.11789358 0.33915377 2.53600001
1.10747302 0.37226555 2.53369713
1.09697175 0.40563360 2.54078341
1.08650303 0.43889812 2.54026175
1.07590783 0.47256476 2.54511619
1.05513573 0.53856850 2.53404379
1.04428542 0.57304567 2.54200292
1.03379226 0.60638779 2.53840947
1.02303267 0.64057684 2.54013038
1.00155807 0.70881289 2.53868461
0.99094331 0.74254137 2.53455210
0.97986388 0.77774668 2.53661227
0.96857905 0.81360435 2.53992796
0.95768392 0.84822387 2.53673887
0.93489605 0.92063290 2.53889537
0.92438489 0.95403236 2.52890372
0.91157711 0.99472952 2.54098964
0.89724970 1.04025507 2.56439924
0.87723964 1.10383761 2.52917337
0.86207181 1.15203369 2.55262089
0.85049367 1.18882346 2.54566455
0.83853030 1.22683752 2.54068947
0.82680118 1.26410699 2.53313208
0.80262613 1.34092379 2.52015352
0.78810549 1.38706350 2.52688813
0.77146828 1.43992865 2.54378653
0.75579232 1.48973942 2.55248547
0.74039853 1.53865349 2.55741787
0.71484476 1.61985111 2.53551888
0.69707358 1.67631948 2.54700732
0.68082607 1.72794640 2.54893470
0.66081864 1.79152036 2.56554747
0.63369417 1.87770915 2.53682470
0.61484218 1.93761182 2.54207754
0.59579021 1.99814987 2.54573464
0.57735282 2.05673504 2.54480219
0.55692601 2.12164187 2.54890871
0.52502316 2.22301388 2.51994872
0.49770698 2.30981159 2.54005837
0.47285885 2.38876724 2.54871058
0.44862789 2.46576166 2.55239129
0.41736925 2.56508684 2.57353401
0.38137949 2.67944503 2.53176379
0.36919034 2.71817636 2.49356794
0.36604825 2.72816038 2.43229127
0.37376115 2.70365262 2.34597325
0.36978087 2.71630001 2.22593331
0.37166229 2.71032166 2.15930939
0.36917371 2.71822929 2.10349202
0.33513352 2.82639265 2.11174512
0.28362820 2.99005222 2.14949942
0.29940400 2.93992424 0.87977439
0.30028296 2.93713117 0.78328311
0.29698470 2.94761157 0.59273165
0.29746002 2.94610119 0.54499930
0.29848543 2.94284296 0.49735424
0.29978353 2.93871808 0.40217447
0.29885969 2.94165373 0.35421535
0.29908678 2.94093204 0.30636689
0.30105880 2.93466592 0.25900942
0.49780488 2.30950069 -0.08652343
0.55049723 2.14206934 -0.10581119
0.58361286 2.03684378 -0.10278662
0.61931759 1.92339110 -0.09253700
0.64834058 1.83116972 -0.08696170
0.67855805 1.73515308 -0.10659249
1.37397814 -0.20942792 0.19850017
1.37166727 -0.20208520 0.22998475
1.37088335 -0.19959413 0.24445845
1.37000263 -0.19679558 0.25874379
1.36984313 -0.19628878 0.27156612
1.37038982 -0.19802617 0.29532295
1.36888766 -0.19325303 0.30937260
1.36953497 -0.19530983 0.32030347
1.36842871 -0.19179463 0.33328968
1.36882734 -0.19306126 0.35557276
1.36749649 -0.18883251 0.36811528
1.36781967 -0.18985921 0.37879083
1.36692417 -0.18701376 0.39048520
1.36785245 -0.18996359 0.41115427
1.36735272 -0.18837544 0.42212436
1.36738062 -0.18846425 0.43261367
1.36735177 -0.18837249 0.44306868
1.36742210 -0.18859604 0.46372306
1.36782146 -0.18986507 0.47382846
1.36697364 -0.18717107 0.48437366
1.36756396 -0.18904680 0.49436268
1.36798859 -0.19039614 0.51459295
1.36662138 -0.18605159 0.52489805
1.36760080 -0.18916386 0.53489524
1.36762726 -0.18924795 0.54500014
1.36662138 -0.18605159 0.56510228
1.36648965 -0.18563330 0.57514566
1.36630547 -0.18504792 0.58517987
1.36756396 -0.18904674 0.59563762
1.36692762 -0.18702473 0.61580622
1.36653030 -0.18576220 0.62585974
1.36637688 -0.18527466 0.63604504
1.36646485 -0.18555428 0.64641070
1.36649656 -0.18565519 0.65681422
1.36668241 -0.18624581 0.67794621
1.36654210 -0.18580000 0.68845981
1.36634421 -0.18517095 0.69899750
1.36724246 -0.18802533 0.71065819
1.36625779 -0.18489639 0.73164642
1.36553752 -0.18260774 0.74196887
1.36673617 -0.18641637 0.75465852
1.36701262 -0.18729502 0.76647156
1.36805260 -0.19059964 0.77950388
1.36768365 -0.18942705 0.80287117
1.36848271 -0.19196604 0.81632107
1.36838365 -0.19165140 0.82862628
1.36820853 -0.19109485 0.84100199
1.36736417 -0.18841195 0.86545932
1.36825860 -0.19125393 0.88050014
1.36776090 -0.18967244 0.89316589
1.36896527 -0.19349939 0.90958464
1.36954606 -0.19534509 0.92515820
1.36976755 -0.19604862 0.94034958
1.36867559 -0.19257906 0.96820557
1.36882913 -0.19306710 0.98432511
1.37052226 -0.19844706 1.00489926
1.36971903 -0.19589454 1.01950777
1.37203538 -0.20325500 1.04316056
1.37005413 -0.19695939 1.07361329
1.36967289 -0.19574785 1.09128082
1.37045503 -0.19823329 1.11323071
1.37105966 -0.20015462 1.13543427
1.37294412 -0.20614247 1.16291308
1.37017787 -0.19735260 1.19748127
1.37067151 -0.19892107 1.22272933
1.37114608 -0.20042899 1.24899507
1.37272048 -0.20543166 1.28095734
1.37604535 -0.21599662 1.32197881
1.37026453 -0.19762778 1.35401714
1.37099242 -0.19994089 1.38790762
1.37124956 -0.20075807 1.42129290
1.37349844 -0.20790391 1.46669912
1.37198293 -0.20308807 1.49481404
1.37213004 -0.20355582 1.57383823
1.37136996 -0.20114037 1.61203623
1.37322199 -0.20702538 1.66899240
1.37630081 -0.21680829 1.73805785
1.37660229 -0.21776624 1.79342508
1.36915028 -0.19408745 1.85685134
1.37304175 -0.20645285 1.95153153
1.36809433 -0.19073188 2.05740047
1.35860395 -0.16057621 2.05320692
1.34316647 -0.11152307 2.07620120
1.33398068 -0.08233465 2.07221889
1.32537878 -0.05500202 2.07340622
1.31641889 -0.02653166 2.06923103
1.31172025 -0.01160161 2.24625039
1.30347586 0.01459541 2.26360536
1.29405415 0.04453297 2.26284766
1.29525602 0.04071406 2.46143603
1.28825259 0.06296773 2.53124118
1.26727617 0.12962098 2.53803277
1.25682330 0.16283548 2.54200006
1.24616802 0.19669290 2.53838563
1.23563278 0.23016922 2.53713536
1.21466303 0.29680112 2.53378773
1.20423520 0.32993612 2.53369713
1.19381452 0.36304793 2.52600002
1.18338871 0.39617640 2.53469682
1.17288220 0.42956108 2.54178286
1.15210104 0.49559397 2.53214765
1.14151335 0.52923667 2.53639317
1.13086855 0.56306100 2.54001093
1.12024319 0.59682363 2.54101014
1.09942341 0.66297895 2.53025341
1.08820283 0.69863290 2.54022050
1.07742202 0.73288924 2.53966641
1.06642771 0.76782393 2.54139900
1.04471827 0.83680636 2.53701687
1.03391612 0.87113076 2.53287530
1.02228463 0.90809029 2.53769541
1.01046646 0.94564277 2.54272056
0.98886693 1.01427615 2.52775216
0.97460872 1.05958211 2.55124354
0.96413112 1.09287488 2.53819394
0.95181185 1.13201988 2.54029942
0.92824692 1.20689821 2.53196120
0.91356391 1.25355387 2.54703379
0.90324932 1.28632891 2.52953696
0.88758123 1.33611476 2.54709148
0.86300862 1.41419506 2.53301024
0.84904128 1.45857680 2.53426003
0.83434272 1.50528216 2.53791380
0.81775230 1.55799878 2.54978561
0.80092984 1.61145258 2.56032515
0.77385670 1.69747841 2.54291129
0.75851279 1.74623418 2.54084468
0.74107683 1.80163765 2.54638028
0.72363722 1.85705256 2.54969907
0.69211537 1.95721436 2.53671503
0.67742413 2.00389624 2.52384806
0.65568584 2.07297039 2.53588438
0.63264394 2.14618683 2.54963994
0.61180019 2.21241856 2.55267692
0.57838047 2.31861091 2.52477574
0.55427033 2.39522171 2.53166080
0.52566630 2.48611212 2.54904556
0.49351880 2.58826184 2.57287788
0.45753595 2.70259857 2.53113437
0.44156510 2.75334644 2.50280285
0.44029319 2.75738788 2.43650389
0.44361272 2.74684024 2.36066794
0.44650972 2.73763466 2.28809810
0.44255021 2.75021625 2.17020226
0.44509691 2.74212408 2.10349202
0.41002750 2.85355830 2.11380529
0.37255052 2.97264266 2.12449932
0.36459109 2.99793410 1.13214183
0.37261772 2.97242904 0.78432900
0.37300888 2.97118616 0.68829513
0.37020677 2.98009014 0.59288871
0.37008131 2.98048878 0.54499930
0.37170747 2.97532153 0.49719715
0.37360844 2.96928120 0.40180811
0.37118950 2.97696733 0.35337827
0.37261772 2.97242904 0.30566964
0.37399670 2.96804738 0.25796413
0.38111746 2.94542098 0.06764047
0.38241857 2.94128656 -0.07901491
0.60082746 2.24728489 -0.09682877
0.63351583 2.14341640 -0.09767200
0.67702502 2.00516438 -0.08158137
0.70867616 1.90459192 -0.10793974
0.73704058 1.81446290 -0.10087891
1.44402885 -0.19645986 0.19350018
1.43927932 -0.18136573 0.21629925
1.43805897 -0.17748709 0.23186265
1.43799412 -0.17728104 0.25786707
1.43892729 -0.18024662 0.26903042
1.43732965 -0.17516927 0.28387523
1.43646038 -0.17240669 0.29727662
1.43670690 -0.17319004 0.32066181
1.43559897 -0.16966893 0.33363172
1.43526053 -0.16859372 0.34542689
1.43399584 -0.16457437 0.35804486
1.43527198 -0.16862988 0.37879083
1.43437660 -0.16578439 0.39048520
1.43399477 -0.16457067 0.40154046
1.43471992 -0.16687535 0.41160420
1.43483305 -0.16723491 0.43261367
1.43391740 -0.16432488 0.44358963
1.43442225 -0.16592960 0.45364243
1.43457723 -0.16642208 0.46386224
1.43472457 -0.16689035 0.48426914
1.43501639 -0.16781746 0.49436268
1.43375802 -0.16381852 0.50482041
1.43347394 -0.16291563 0.52496785
1.43355262 -0.16316575 0.53498250
1.43357885 -0.16324915 0.54500014
1.43415284 -0.16507323 0.55505276
1.43407381 -0.16482221 0.56510228
1.43375802 -0.16381852 0.58517987
1.43411934 -0.16496667 0.59537619
1.43382907 -0.16404435 0.60541761
1.43438005 -0.16579536 0.61580622
1.43412590 -0.16498743 0.63620144
1.43421292 -0.16526426 0.64658433
1.43335986 -0.16255306 0.65643263
1.43363070 -0.16341381 0.66704434
1.43341219 -0.16271953 0.68797600
1.43321693 -0.16209872 0.69847983
1.43354082 -0.16312817 0.70955563
1.43437481 -0.16577859 0.72130030
1.43399584 -0.16457425 0.73195547
1.43362451 -0.16339426 0.75397444
1.43446517 -0.16606565 0.76647156
1.43494833 -0.16760147 0.77875465
1.43507886 -0.16801623 0.79077005
1.43511879 -0.16814318 0.81505322
1.43529630 -0.16870737 0.82774955
1.43592823 -0.17071544 0.84145594
1.43567371 -0.16990677 0.85391247
1.43665421 -0.17302261 0.86885297
1.43521321 -0.16844310 0.89316589
1.43463564 -0.16660750 0.90587515
1.43498433 -0.16771585 0.92080110
1.43647301 -0.17244694 0.93867195
1.43442798 -0.16594774 0.96409106
1.43628132 -0.17183784 0.98432511
1.43631864 -0.17195615 1.00058961
1.43600476 -0.17095871 1.01636112
1.43741775 -0.17544936 1.03737545
1.43460643 -0.16651471 1.06491458
1.43734443 -0.17521624 1.09196281
1.43704331 -0.17425941 1.11045206
1.43872380 -0.17959993 1.13614142
1.43851912 -0.17894971 1.15643895
1.43762982 -0.17612338 1.19748127
1.43812335 -0.17769189 1.22272933
1.43744028 -0.17552088 1.24439871
1.43771648 -0.17639863 1.27085447
1.44331157 -0.19418043 1.32119071
1.43789291 -0.17695929 1.35482621
1.43758345 -0.17597607 1.38381183
1.44172251 -0.18913032 1.43621564
1.44242120 -0.19135068 1.47424722
1.44452429 -0.19803450 1.52195156
1.43868136 -0.17946507 1.56864214
1.43969476 -0.18268593 1.61728382
1.44025075 -0.18445286 1.66634357
1.44361556 -0.19514635 1.73716688
1.43850052 -0.17889048 1.81111205
1.43684661 -0.17363410 1.85867846
1.43122840 -0.15577924 1.87881160
1.43522394 -0.16847704 2.05459976
1.41940260 -0.11819571 2.07484913
1.41052997 -0.08999774 2.07525015
1.40126276 -0.06054587 2.07030630
1.39275503 -0.03350768 2.07244492
1.37623930 0.01898068 2.08097816
1.38026166 0.00619722 2.26184011
1.37087584 0.03602621 2.26262736
1.36146080 0.06594793 2.26186609
1.36381423 0.05846847 2.48211694
1.34513140 0.11784408 2.53246808
1.33485401 0.15050648 2.54101038
1.32404196 0.18486792 2.53404379
1.31363940 0.21792820 2.53838563
1.29255390 0.28493926 2.53227282
1.28223360 0.31773835 2.54278231
1.27171826 0.35115683 2.53469706
1.26129401 0.38428581 2.54200006
1.24045920 0.45050037 2.53278828
1.23000264 0.48373219 2.53427005
1.21944046 0.51729965 2.53913045
1.20900095 0.55047715 2.53639317
1.18784380 0.61771637 2.53803253
1.17741489 0.65086025 2.53345823
1.16607249 0.68690747 2.54803205
1.15559447 0.72020727 2.54219007
1.14480507 0.75449681 2.54162955
1.12328613 0.82288563 2.53661227
1.11207581 0.85851312 2.53895760
1.10126519 0.89287013 2.53480697
1.08979082 0.92933655 2.53769541
1.06753778 1.00005841 2.53175688
1.05559659 1.03800857 2.53531647
1.04314888 1.07756817 2.54184675
1.03089345 1.11651695 2.54472899
1.00574744 1.19643307 2.55077982
0.99564570 1.22853720 2.53287482
0.98184818 1.27238679 2.54159594
0.96866888 1.31427157 2.54391766
0.94213110 1.39861071 2.54487610
0.93141282 1.43267441 2.52776265
0.91567409 1.48269331 2.53945613
0.89909565 1.53538072 2.55334258
0.87255734 1.61972165 2.53935838
0.85696650 1.66927063 2.54215121
0.84122950 1.71928406 2.54373074
0.82341373 1.77590382 2.55297995
0.80429167 1.83667529 2.56554747
0.77736038 1.92226505 2.53604746
0.75812954 1.98338223 2.54284358
0.73986429 2.04143071 2.54347062
0.71862990 2.10891509 2.55297685
0.68750191 2.20784235 2.52462268
0.66681981 2.27357173 2.52560568
0.64120591 2.35497475 2.54005837
0.61416662 2.44090772 2.55553055
0.57583159 2.56273961 2.53023410
0.54714262 2.65391517 2.54149771
0.52279770 2.73128557 2.53742766
0.51460183 2.75733256 2.48864269
0.50853807 2.77660370 2.36713362
0.51115525 2.76828599 2.29498124
0.51379782 2.75988770 2.22481489
0.51694334 2.74989104 2.15549707
0.49306574 2.82577586 2.08290315
0.45627400 2.94270301 2.09349918
0.44813246 2.96857738 1.02270544
0.44486457 2.97896314 0.97581983
0.44441122 2.98040366 0.78310877
0.44328839 2.98397231 0.73557401
0.44031653 2.99341702 0.68834746
0.44111571 2.99087715 0.59269673
0.44129089 2.99032044 0.54499930
0.44149047 2.98968625 0.44961897
0.44209072 2.98777843 0.35414559
0.44351429 2.98325443 0.30662835
0.44339499 2.98363352 0.25859129
0.45068017 2.96048069 0.21339284
0.69654191 2.17911267 -0.10288109
0.73612368 2.05331850 -0.09184195
0.76559931 1.95964277 -0.08895333
0.79654658 1.86128986 -0.08059336
0.82531863 1.76985002 -0.10171165
1.51946628 -0.16727582 0.19650017
1.51496387 -0.15296677 0.21872331
1.51613450 -0.15668727 0.24309649
1.51499116 -0.15305358 0.25786707
1.51429212 -0.15083209 0.27156612
1.51566768 -0.15520373 0.29415077
1.51389349 -0.14956516 0.30862340
1.51314354 -0.14718157 0.32137856
1.51287806 -0.14633788 0.33328968
1.51270568 -0.14579013 0.35619077
1.51194596 -0.14337571 0.36811528
1.51169193 -0.14256859 0.37934211
1.51137364 -0.14155693 0.39048520
1.51171696 -0.14264789 0.41160420
1.51092136 -0.14011949 0.42274809
1.51124084 -0.14113478 0.43299529
1.51141930 -0.14170215 0.45364243
1.51127708 -0.14125003 0.46400142
1.51167500 -0.14251474 0.47407219
1.51172161 -0.14266291 0.48426914
1.51135397 -0.14149423 0.50468093
1.51093924 -0.14017646 0.51485467
1.51107085 -0.14059475 0.52489805
1.51114988 -0.14084578 0.53494757
1.51114988 -0.14084578 0.55505276
1.51107085 -0.14059475 0.56510228
1.51093924 -0.14017646 0.57514566
1.51075506 -0.13959107 0.58517987
1.51082611 -0.13981691 0.60541761
1.51137710 -0.14156792 0.61580622
1.51157427 -0.14219458 0.62613809
1.51141930 -0.14170209 0.63635790
1.51035690 -0.13832562 0.65643263
1.51033413 -0.13825336 0.66683644
1.51025462 -0.13800062 0.67727137
1.51099169 -0.14034317 0.68845981
1.51137364 -0.14155683 0.69951510
1.51079774 -0.13972673 0.72071552
1.51127839 -0.14125401 0.73226446
1.51083863 -0.13985659 0.74294561
1.51203179 -0.14364862 0.75568455
1.51111054 -0.14072070 0.77763087
1.51124704 -0.14115457 0.78959781
1.51295567 -0.14658459 0.80409139
1.51265991 -0.14564474 0.81589848
1.51239038 -0.14478815 0.84054798
1.51214075 -0.14399488 0.85297352
1.51260114 -0.14545797 0.86691374
1.51244795 -0.14497110 0.88000017
1.51349664 -0.14830387 0.89574111
1.51147795 -0.14188841 0.91971183
1.51347005 -0.14821948 0.93867195
1.51285636 -0.14626920 0.95223939
1.51385331 -0.14943740 0.96996891
1.51399755 -0.14989579 0.98613054
1.51230204 -0.14450733 1.01447320
1.51372504 -0.14902975 1.03544712
1.51339447 -0.14797910 1.05213380
1.51517236 -0.15362932 1.07562065
1.51587808 -0.15587224 1.09673679
1.51359844 -0.14862743 1.12907028
1.51551628 -0.15472226 1.15643895
1.51576626 -0.15551677 1.17908382
1.51683617 -0.15891697 1.20565593
1.51327968 -0.14761454 1.23980248
1.51358020 -0.14856932 1.26619160
1.51809120 -0.16290566 1.31173456
1.51892447 -0.16555403 1.34363568
1.51806557 -0.16282418 1.36938846
1.51334870 -0.14783372 1.40968633
1.51663923 -0.15829119 1.45998967
1.51738596 -0.16066444 1.49990237
1.52070439 -0.17121045 1.55645752
1.51421809 -0.15059677 1.60241532
1.51696599 -0.15932974 1.66457772
1.51843238 -0.16398998 1.72291076
1.51933980 -0.16687384 1.78174078
1.52006412 -0.16917579 1.84373915
1.50752175 -0.12931553 1.87328863
1.51504254 -0.15321676 2.00253320
1.51706123 -0.15963255 2.09661078
1.50449193 -0.11968650 2.06636238
1.49542236 -0.09086275 2.06539416
1.47878611 -0.03799181 2.07604408
1.46991718 -0.00980616 2.07436752
1.46134198 0.01744622 2.07502651
1.44793475 0.06005520 2.26360536
1.43851459 0.08999319 2.26284766
1.43914282 0.08799631 2.45060301
1.43261993 0.10872667 2.52926612
1.41163075 0.17543119 2.53505516
1.40128911 0.20829745 2.54200006
1.39055705 0.24240479 2.53539705
1.37995517 0.27609795 2.53015256
1.35912466 0.34229833 2.53278828
1.34872460 0.37535059 2.53669667
1.33828974 0.40851286 2.53299999
1.32783401 0.44174168 2.54069614
1.30693531 0.50815886 2.53826451
1.29643595 0.54152662 2.53913045
1.28576100 0.57545227 2.54535890
1.27554142 0.60793060 2.53404379
1.25428474 0.67548537 2.53642893
1.24353707 0.70964205 2.53815484
1.23253739 0.74459970 2.54317498
1.22185731 0.77854162 2.54064798
1.20028090 0.84711236 2.53661227
1.18921566 0.88227826 2.53701687
1.17818201 0.91734374 2.53577304
1.16661990 0.95408905 2.53961802
1.14481044 1.02340066 2.52890372
1.13288403 1.06130338 2.53247976
1.12024570 1.10146856 2.54090691
1.10831785 1.13937604 2.54099488
1.08403134 1.21655965 2.54065418
1.07251740 1.25315154 2.53378820
1.05884194 1.29661310 2.54159594
1.04737306 1.33306181 2.53223348
1.01940644 1.42194128 2.54311013
1.00869715 1.45597589 2.52601337
0.99311751 1.50548863 2.53685808
0.97639793 1.55862451 2.55162859
0.96117002 1.60701966 2.55572176
0.93379146 1.69403017 2.54298019
0.91805005 1.74405718 2.54454970
0.90075916 1.79900849 2.55136180
0.88110346 1.86147535 2.56634617
0.85359704 1.94889224 2.53915620
0.83531457 2.00699496 2.54207754
0.81528091 2.07066298 2.54950809
0.79763007 2.12675810 2.54554534
0.76637000 2.22610450 2.51814866
0.74444795 2.29577374 2.52348423
0.71754944 2.38125873 2.54214239
0.69027954 2.46792388 2.55825853
0.66221082 2.55712795 2.57313418
0.62574267 2.67302561 2.53699827
0.60048777 2.75328708 2.53553987
0.59395736 2.77404094 2.48248601
0.59494817 2.77089214 2.41122770
0.58888316 2.79016709 2.29326034
0.59128577 2.78253150 2.22369647
0.59544402 2.76931620 2.15222907
0.57517451 2.83373380 2.13369727
0.53300387 2.96775436 2.09399939
0.51930797 3.01128078 0.78371888
0.51488864 3.02532554 0.73682958
0.51850528 3.01383162 0.68813813
0.51870573 3.01319480 0.59266180
0.51738024 3.01740718 0.54499930
0.51908022 3.01200461 0.44968879
0.52482665 2.99374199 0.06711952
0.52745390 2.98539257 0.01989297
0.68305540 2.49088264 -0.08097298
0.73254508 2.33360171 -0.11073454
0.77381736 2.20243645 -0.10255553
0.81988472 2.05603170 -0.08363350
0.84511340 1.97585368 -0.08572800
0.87964964 1.86609554 -0.10361405
0.90669847 1.78013313 -0.09520383
1.60126102 -0.14584976 0.17983820
1.59946227 -0.14013283 0.21145113
1.59588182 -0.12875341 0.23139317
1.59402108 -0.12283952 0.24763639
1.59501255 -0.12599047 0.25874379
1.59488761 -0.12559336 0.28387523
1.59401834 -0.12283076 0.29727662
1.59306300 -0.11979450 0.31049645
1.59315693 -0.12009300 0.33363172
1.59310246 -0.11991975 0.34510130
1.59155405 -0.11499841 0.35804486
1.59311855 -0.11997093 0.37851521
1.59251451 -0.11805122 0.38996756
1.59155285 -0.11499471 0.40154046
1.59169304 -0.11544053 0.41205409
1.59150732 -0.11484990 0.43318608
1.59147549 -0.11474892 0.44358963
1.59227681 -0.11729582 0.45348600
1.59154093 -0.11495690 0.46414059
1.59228265 -0.11731441 0.48426914
1.59167743 -0.11539072 0.49462414
1.59131622 -0.11424255 0.50482041
1.59090090 -0.11292280 0.51495934
1.59111083 -0.11358978 0.53498250
1.59113705 -0.11367319 0.54500014
1.59111083 -0.11358978 0.55501783
1.59103203 -0.11333961 0.56503248
1.59071732 -0.11233938 0.58504039
1.59107947 -0.11349016 0.59520185
1.59168565 -0.11541704 0.60552216
1.59193814 -0.11621940 0.61580622
1.59138751 -0.11446930 0.63604504
1.59177101 -0.11568830 0.64658433
1.59091806 -0.11297709 0.65643263
1.59118879 -0.11383785 0.66704434
1.59097040 -0.11314357 0.68797600
1.59077501 -0.11252275 0.69847983
1.59109890 -0.11355220 0.70955563
1.59221995 -0.11711484 0.72159266
1.59083211 -0.11270424 0.74229443
1.59202874 -0.11650744 0.75500053
1.59230340 -0.11738025 0.76682991
1.59250641 -0.11802551 0.77875465
1.59318948 -0.12019642 0.79155147
1.59349287 -0.12116082 0.81632107
1.59258461 -0.11827409 0.82731116
1.59348619 -0.12113950 0.84145594
1.59402680 -0.12285759 0.85532087
1.59326887 -0.12044869 0.88050014
1.59277129 -0.11886717 0.89316589
1.59295726 -0.11945841 0.90746492
1.59329760 -0.12053995 0.92243505
1.59194231 -0.11623242 0.94879794
1.59295738 -0.11945865 0.96644217
1.59407902 -0.12302373 0.98492694
1.59576869 -0.12839368 1.00551498
1.59472895 -0.12508939 1.01950777
1.59327579 -0.12047087 1.05016553
1.59305668 -0.11977431 1.06759119
1.59468281 -0.12494271 1.09128082
1.59524894 -0.12674199 1.11253607
1.59628165 -0.13002405 1.13614142
1.59468949 -0.12496391 1.17323303
1.59518778 -0.12654749 1.19748127
1.59548438 -0.12749016 1.22197461
1.59634864 -0.13023709 1.24976110
1.59384763 -0.12228806 1.29124629
1.59388578 -0.12240951 1.31887794
1.59633291 -0.13018683 1.35887122
1.60185516 -0.14773826 1.41575873
1.60011947 -0.14222151 1.44036078
1.59365249 -0.12166781 1.47700500
1.59832788 -0.13652754 1.54017138
1.59954071 -0.14038204 1.58769464
1.59899867 -0.13865961 1.62777936
1.60175383 -0.14741611 1.69106603
1.59911096 -0.13901645 1.77634799
1.59846842 -0.13697416 1.82833195
1.59489286 -0.12561014 1.86233270
1.60145199 -0.14645672 1.97822618
1.58515608 -0.09466411 2.06730223
1.57696140 -0.06861953 2.07484913
1.56781101 -0.03953712 2.07239676
1.55064607 0.01501719 2.07629013
1.54190588 0.04279562 2.07502651
1.53788996 0.05555944 2.26281452
1.52849948 0.08540484 2.26360536
1.51308918 0.13438267 2.32553244
1.51388967 0.13183825 2.54408121
1.50269389 0.16742143 2.53246808
1.49194145 0.20159523 2.52810740
1.47130799 0.26717347 2.54237056
1.46052372 0.30144882 2.53015256
1.45018184 0.33431771 2.53626728
1.43968391 0.36768284 2.53178906
1.41886067 0.43386444 2.53600001
1.40843701 0.46699357 2.53469682
1.39794314 0.50034565 2.54078341
1.38747656 0.53361088 2.54026175
1.36638713 0.60063857 2.54336667
1.35583353 0.63418072 2.54299450
1.34530437 0.66764492 2.54101014
1.33415031 0.70309538 2.55326366
1.31316638 0.76978755 2.54219007
1.30254936 0.80353123 2.53868461
1.29187441 0.83745873 2.53553033
1.28045452 0.87375391 2.54245853
1.25883973 0.94245130 2.53480697
1.24761415 0.97812903 2.53481150
1.23598897 1.01507664 2.53793907
1.22390831 1.05347204 2.54412055
1.19969988 1.13041282 2.55124354
1.18911684 1.16404808 2.53912759
1.17690766 1.20285213 2.54029942
1.16379583 1.24452484 2.54709792
1.13854074 1.32479167 2.54794002
1.12809205 1.35800052 2.53133464
1.11296284 1.40608490 2.54530931
1.09943175 1.44908988 2.54664207
1.07415819 1.52941561 2.53426003
1.05899894 1.57759571 2.54048514
1.04319370 1.62782848 2.54808927
1.02932596 1.67190385 2.54355145
1.00968599 1.73432457 2.56619334
0.98400116 1.81595755 2.53922653
0.96549344 1.87477970 2.54957485
0.94859517 1.92848670 2.55048704
0.93079567 1.98505807 2.55314493
0.90178871 2.07724929 2.52686691
0.88345325 2.13552403 2.52622366
0.85780531 2.21703982 2.54963994
0.83779985 2.28062224 2.54979944
0.80614376 2.38123322 2.51643991
0.77988690 2.46468401 2.53029680
0.75107265 2.55626297 2.54837656
0.71870875 2.65912366 2.57287788
0.68343300 2.77123880 2.52924657
0.66771179 2.82120466 2.50034022
0.67292464 2.80463696 2.41784763
0.67464042 2.79918385 2.34656119
0.66319036 2.83557487 2.24326825
0.66775066 2.82108140 2.17020226
0.66749704 2.82188725 2.10932088
0.63420564 2.92769575 2.11586547
0.58587116 3.08131504 0.98458016
0.60159910 3.03132772 0.83119822
0.59879971 3.04022479 0.73606229
0.59789795 3.04309082 0.64051920
0.60052347 3.03474617 0.59259200
0.59909773 3.03927755 0.44961897
0.59792382 3.04300857 0.40165111
0.59999740 3.03641820 0.35421535
0.60352057 3.02522063 0.21144293
0.60247171 3.02855420 0.11417879
0.60689235 3.01450419 0.01912974
0.67188793 2.80793190 -0.07553031
0.79459590 2.41793513 -0.09090896
0.84654725 2.25282073 -0.07457961
0.87848657 2.15130949 -0.11031105
0.91618556 2.03149247 -0.09791251
0.94884896 1.92768002 -0.08771093
0.97627050 1.84052742 -0.08095165
1.68250608 -0.11234467 0.19850017
1.68046069 -0.10584402 0.22951527
1.67860961 -0.09996083 0.24582045
1.67853141 -0.09971207 0.25874379
1.67782784 -0.09747612 0.27241138
1.67808974 -0.09830845 0.29649517
1.67658198 -0.09351611 0.31049645
1.67752194 -0.09650370 0.33260566
1.67633748 -0.09273939 0.34542689
1.67535830 -0.08962722 0.35773584
1.67573881 -0.09083657 0.36840767
1.67545366 -0.08993004 0.39048520
1.67565417 -0.09056746 0.40105662
1.67521203 -0.08916213 0.41205409
1.67529488 -0.08942561 0.42254019
1.67499435 -0.08847053 0.44358963
1.67549932 -0.09007525 0.45364243
1.67505980 -0.08867851 0.46414059
1.67545712 -0.08994102 0.47419408
1.67549539 -0.09006263 0.49453700
1.67483509 -0.08796416 0.50482041
1.67561877 -0.09045477 0.51475000
1.67462969 -0.08731139 0.53498250
1.67465591 -0.08739480 0.54500014
1.67462969 -0.08731139 0.55501783
1.67455101 -0.08706122 0.56503248
1.67441988 -0.08664440 0.57504100
1.67459834 -0.08721178 0.59520185
1.67520463 -0.08913866 0.60552216
1.67515922 -0.08899423 0.61568439
1.67490637 -0.08819091 0.63604504
1.67469883 -0.08753109 0.64623702
1.67532074 -0.08950783 0.65700501
1.67441416 -0.08662644 0.66683644
1.67521203 -0.08916208 0.67794621
1.67429399 -0.08624436 0.69847983
1.67461789 -0.08727381 0.70955563
1.67573881 -0.09083645 0.72159266
1.67406726 -0.08552393 0.74196887
1.67441952 -0.08664355 0.75363243
1.67582226 -0.09110186 0.76682991
1.67602539 -0.09174713 0.77875465
1.67587960 -0.09128386 0.79037929
1.67619574 -0.09228886 0.81505322
1.67637324 -0.09285305 0.82774955
1.67700505 -0.09486111 0.84145594
1.67701566 -0.09489471 0.85438192
1.67496824 -0.08838758 0.87700015
1.67629015 -0.09258877 0.89316589
1.67647612 -0.09318003 0.90746492
1.67606127 -0.09186152 0.92080110
1.67521536 -0.08917265 0.94822443
1.67550504 -0.09009339 0.96409106
1.67759800 -0.09674535 0.98492694
1.67834151 -0.09910854 1.00305235
1.67824793 -0.09881101 1.01950777
1.67679477 -0.09419248 1.05016553
1.67769074 -0.09704032 1.07093680
1.67820179 -0.09866432 1.09128082
1.67898381 -0.10114981 1.11323071
1.68425727 -0.11791033 1.15099061
1.67820847 -0.09868553 1.17323303
1.67870665 -0.10026910 1.19748127
1.67920017 -0.10183761 1.22272933
1.68083215 -0.10702442 1.25359130
1.68180120 -0.11010435 1.31015861
1.68137836 -0.10876065 1.33644795
1.68285072 -0.11344013 1.37262452
1.68158686 -0.10942303 1.39773738
1.68498099 -0.12021047 1.44699311
1.67717135 -0.09538943 1.47700500
1.68339252 -0.11516210 1.54874301
1.68230915 -0.11171891 1.58336461
1.68440914 -0.11839321 1.63914943
1.68344092 -0.11531601 1.67958772
1.68302464 -0.11399261 1.77904439
1.68135309 -0.10868009 1.82380044
1.67853379 -0.09971975 1.86324620
1.68579173 -0.12278739 1.98466969
1.68060315 -0.10629654 2.09194279
1.66888034 -0.06903826 2.06918168
1.66292322 -0.05010508 2.09848714
1.65095901 -0.01207963 2.06859279
1.63424790 0.04103272 2.07725120
1.62565804 0.06833340 2.07792449
1.62107146 0.08291078 2.25794268
1.60299981 0.14034741 2.26971912
1.59806764 0.15602319 2.35310721
1.59670472 0.16035508 2.52926612
1.58633852 0.19330165 2.53543901
1.57564366 0.22729251 2.53307009
1.55467057 0.29395086 2.53639317
1.54406416 0.32766083 2.53115010
1.53365433 0.36074606 2.53327155
1.51284587 0.42688075 2.54269576
1.50238025 0.46014306 2.54200006
1.49195147 0.49328887 2.53569674
1.48145235 0.52665758 2.54178286
1.46052897 0.59315765 2.53913045
1.44988084 0.62700039 2.54436278
1.43929064 0.66065884 2.54498339
1.42882431 0.69392365 2.54101014
1.40763342 0.76127404 2.53815484
1.39673853 0.79590064 2.54120517
1.38601220 0.82999206 2.53966641
1.37489545 0.86532414 2.54335546
1.35382354 0.93229598 2.53022504
1.34251535 0.96823645 2.53287530
1.33105171 1.00467086 2.53577304
1.31915843 1.04247117 2.54176426
1.29728019 1.11200595 2.52964330
1.28506815 1.15081918 2.53432918
1.27274501 1.18998516 2.53819394
1.26009107 1.23020303 2.54308105
1.23662424 1.30478692 2.53378820
1.22383738 1.34542680 2.53525186
1.21148133 1.38469768 2.53223348
1.19771004 1.42846656 2.53729033
1.17222583 1.50946212 2.52951193
1.15722919 1.55712557 2.53685808
1.14298379 1.60240102 2.53791380
1.12591970 1.65663517 2.55232978
1.10092759 1.73606682 2.52805758
1.08199406 1.79624259 2.54536891
1.06505287 1.85008633 2.55055285
1.04865372 1.90220702 2.55117226
1.02111697 1.98972631 2.52516747
1.00059330 2.05495596 2.53748131
0.97999406 2.12042594 2.54724431
0.96135193 2.17967558 2.54703188
0.92986995 2.27973366 2.52030659
0.90878701 2.34674072 2.52277708
0.88146198 2.43358707 2.54283690
0.85462916 2.51886892 2.55757666
0.82567352 2.61089778 2.57514167
0.79102629 2.72101593 2.53378439
0.76299065 2.81012058 2.53994513
0.75549173 2.83395410 2.48925829
0.75932384 2.82177472 2.41062593
0.75179017 2.84571862 2.29612827
0.75094318 2.84841061 2.23376203
0.75882483 2.82336068 2.15386319
0.73982066 2.88376093 2.13263750
0.69636387 3.02187824 2.09549928
0.68213731 3.06709409 0.83224350
0.68374759 3.06197619 0.78363174
0.68202347 3.06745577 0.73613203
0.68512249 3.05760646 0.54499930
0.68254614 3.06579471 0.49731934
0.68322080 3.06365061 0.44968879
0.68591571 3.05508542 0.35477340
0.68374759 3.06197619 0.30636689
0.68273431 3.06519651 0.25796413
0.67978930 3.07455659 -0.03756924
0.84603184 2.54619336 -0.08207555
0.94049639 2.24596000 -0.09962542
0.98400694 2.10767198 -0.08363350
1.00923407 2.02749348 -0.08572800
1.04459703 1.91510034 -0.10244186
1.07081532 1.83177173 -0.09520383
1.77446663 -0.09430511 0.19250019
1.77182257 -0.08590169 0.21145113
1.76744711 -0.07199556 0.23280157
1.76638138 -0.06860837 0.24763639
1.76802945 -0.07384601 0.27029830
1.76724792 -0.07136223 0.28387523
1.76554990 -0.06596539 0.29844883
1.76606476 -0.06760196 0.32137856
1.76551723 -0.06586185 0.33363172
1.76461136 -0.06298280 0.34607801
1.76515436 -0.06470829 0.36782292
1.76461339 -0.06298894 0.37934211
1.76429498 -0.06197729 0.39048520
1.76391315 -0.06076357 0.40154046
1.76472354 -0.06333901 0.42212436
1.76327837 -0.05874601 0.43356770
1.76383579 -0.06051778 0.44358963
1.76434076 -0.06212250 0.45364243
1.76429844 -0.06198826 0.47419408
1.76374757 -0.06023730 0.48458272
1.76493478 -0.06401037 0.49436268
1.76367652 -0.06001141 0.50482041
1.76399231 -0.06101510 0.52489805
1.76407123 -0.06126612 0.53494757
1.76349735 -0.05944205 0.54500014
1.76339245 -0.05910847 0.56503248
1.76386070 -0.06059681 0.57514566
1.76367652 -0.06001141 0.58517987
1.76403773 -0.06115958 0.59537619
1.76340485 -0.05914793 0.61544067
1.76390123 -0.06072570 0.62585974
1.76374781 -0.06023816 0.63604504
1.76383579 -0.06051778 0.64641070
1.76416218 -0.06155507 0.65700501
1.76317608 -0.05842096 0.67727137
1.76391315 -0.06076351 0.68845981
1.76429498 -0.06197717 0.69951510
1.76314509 -0.05832265 0.72013080
1.76334345 -0.05895274 0.73133737
1.76290870 -0.05757118 0.74196887
1.76495314 -0.06406899 0.75568455
1.76319706 -0.05848771 0.77650702
1.76361585 -0.05981884 0.78881639
1.76505435 -0.06439063 0.80287117
1.76666927 -0.06952325 0.81758893
1.76575422 -0.06661504 0.82862628
1.76400208 -0.06104626 0.85109562
1.76473498 -0.06337551 0.86545932
1.76536930 -0.06539148 0.88000017
1.76564610 -0.06627128 0.89419597
1.76439929 -0.06230876 0.91971183
1.76464963 -0.06310413 0.93475765
1.76479435 -0.06356405 0.94994509
1.76604617 -0.06754271 0.96820557
1.76552737 -0.06589404 0.99874264
1.76545656 -0.06566899 1.01510251
1.76549673 -0.06579652 1.03223324
1.76631570 -0.06839948 1.05213380
1.76440918 -0.06233992 1.08309686
1.76631391 -0.06839380 1.10836804
1.76673198 -0.06972237 1.12977743
1.76843739 -0.07514269 1.15643895
1.76889205 -0.07658776 1.17981517
1.76935554 -0.07806086 1.20416963
1.76639390 -0.06864806 1.24056852
1.76782358 -0.07319187 1.27163160
1.77193606 -0.08626249 1.31567466
1.77184546 -0.08597451 1.34363568
1.76750171 -0.07216903 1.38381183
1.76744485 -0.07198799 1.41548955
1.77152193 -0.08494604 1.47005379
1.77062511 -0.08209587 1.50159848
1.77393436 -0.09261362 1.55817187
1.76932192 -0.07795402 1.61553466
1.77101433 -0.08333278 1.67164123
1.77339721 -0.09090632 1.73627591
1.77357650 -0.09147592 1.79072869
1.76761937 -0.07254297 1.86507332
1.76114702 -0.05197210 1.87881160
1.76546490 -0.06569549 2.05740047
1.74805140 -0.01035111 2.06255746
1.74044955 0.01380972 2.07525015
1.73135829 0.04270394 2.07221889
1.72292364 0.06951128 2.07532883
1.70616055 0.12278866 2.08097816
1.70998013 0.11064888 2.25891709
1.70085967 0.13963597 2.26360536
1.69178367 0.16848205 2.26873755
1.69384027 0.16194537 2.48408651
1.67501235 0.22178529 2.53147793
1.66463089 0.25478011 2.53704023
1.65396571 0.28867671 2.53404379
1.64372063 0.32123831 2.54436278
1.62262058 0.38829920 2.54126048
1.61213839 0.42161435 2.54078341
1.60167599 0.45486653 2.54069614
1.58079708 0.52122468 2.53469682
1.57035565 0.55441028 2.53578639
1.55996239 0.58744258 2.53227282
1.54955781 0.62051117 2.53015256
1.52850735 0.68741465 2.53304911
1.51777422 0.72152722 2.53803253
1.50722051 0.75506955 2.53642893
1.49600387 0.79071862 2.54803205
1.47496665 0.85758030 2.53770304
1.46435928 0.89129311 2.53357387
1.45321965 0.92669749 2.53661227
1.44208252 0.96209431 2.53798723
1.42047048 1.03078258 2.52904391
1.40826130 1.06958663 2.53889537
1.39682484 1.10593450 2.53841424
1.38475168 1.14430583 2.54288054
1.36147678 1.21827912 2.53912759
1.34814322 1.26065648 2.54957128
1.33709383 1.29577410 2.53973389
1.32314384 1.34011066 2.55114579
1.30071509 1.41139519 2.52953696
1.28559518 1.45944989 2.54352736
1.27179170 1.50332093 2.54664207
1.25975502 1.54157639 2.53738356
1.23228621 1.62887895 2.53534222
1.21825731 1.67346632 2.53367257
1.20184922 1.72561538 2.54271293
1.18238139 1.78748882 2.56453538
1.15600812 1.87130976 2.54084468
1.13929820 1.92441809 2.54318571
1.12113965 1.98213041 2.54969907
1.10296643 2.03988934 2.55392194
1.07572365 2.12647390 2.52082920
1.05541122 2.19103169 2.52770996
1.03446341 2.25760889 2.53428173
1.01036787 2.33419037 2.54908037
0.97958285 2.43203306 2.51296663
0.95202690 2.51961279 2.53097868
0.92387819 2.60907626 2.54703832
0.89061528 2.71479416 2.57418990
0.85695875 2.82176280 2.52609992
0.84054428 2.87393212 2.49910879
0.84408557 2.86267710 2.42085695
0.84724271 2.85264301 2.34597325
0.83704275 2.88506103 2.23991299
0.84489262 2.86011219 2.15985417
0.84112906 2.87207365 2.10667157
0.80527866 2.98601508 2.11844063
0.77407873 3.08517623 0.78319597
0.77537853 3.08104515 0.68745774
0.76935744 3.10018158 0.64062393
0.77095741 3.09509659 0.54499930
0.77138239 3.09374595 0.49731934
0.77567828 3.08009243 0.40259317
0.77348083 3.08707666 0.30662835
0.77647585 3.07755756 0.21168669
0.77983183 3.06689143 0.16505675
0.97499204 2.44662380 -0.08272256
1.02479351 2.28834248 -0.10483451
1.07030642 2.14369082 -0.08671166
1.09498978 2.06524110 -0.08967008
1.12844396 1.95891571 -0.07797118
1.15883100 1.86233783 -0.09642406
1.86990869 -0.06336768 0.19300018
1.86516213 -0.04828173 0.21581443
1.86288416 -0.04104199 0.23327105
1.86388409 -0.04422011 0.25742868
1.86454749 -0.04632830 0.26903042
1.86294997 -0.04125094 0.28387523
1.86208069 -0.03848833 0.29727662
1.86176682 -0.03749067 0.32137856
1.86150134 -0.03664697 0.33328968
1.86031342 -0.03287151 0.34607801
1.86085629 -0.03459700 0.36782292
1.86031532 -0.03287766 0.37934211
1.85999703 -0.03186601 0.39048520
1.86034024 -0.03295697 0.41160420
1.86042547 -0.03322772 0.42212436
1.86045349 -0.03331653 0.43261367
1.85953784 -0.03040649 0.44358963
1.86033916 -0.03295339 0.45348600
1.85970259 -0.03093026 0.47431594
1.86034501 -0.03297198 0.48426914
1.85973978 -0.03104829 0.49462414
1.85956264 -0.03048552 0.51485467
1.85969424 -0.03090382 0.52489805
1.85977328 -0.03115484 0.53494757
1.85979962 -0.03123854 0.54500014
1.85969424 -0.03090382 0.56510228
1.85896325 -0.02858037 0.57504100
1.85937846 -0.02990013 0.58517987
1.86003876 -0.03199854 0.59546334
1.85910678 -0.02903664 0.61544067
1.85960329 -0.03061442 0.62585974
1.85974634 -0.03106904 0.63620144
1.86042452 -0.03322471 0.64693165
1.85895765 -0.02856240 0.66683644
1.85887802 -0.02830968 0.67727137
1.85903275 -0.02880115 0.68797600
1.85916126 -0.02920977 0.70955563
1.85942113 -0.03003579 0.72071552
1.85904539 -0.02884146 0.73133737
1.85861075 -0.02745990 0.74196887
1.86065519 -0.03395770 0.75568455
1.85889912 -0.02837643 0.77650702
1.85987043 -0.03146363 0.78959781
1.86048222 -0.03340790 0.80246449
1.86155522 -0.03681839 0.81632107
1.86021149 -0.03254743 0.83918601
1.86049914 -0.03346169 0.85250401
1.86043692 -0.03326422 0.86545932
1.86107123 -0.03528019 0.88000017
1.85949242 -0.03026225 0.90428543
1.86010134 -0.03219748 0.91971183
1.86035156 -0.03299285 0.93475765
1.86123383 -0.03579691 0.95166588
1.86022377 -0.03258672 0.98011243
1.86501360 -0.04780964 1.00859332
1.86115861 -0.03555771 1.01510251
1.86211836 -0.03860813 1.03480434
1.86337686 -0.04260771 1.05607009
1.86120868 -0.03571685 1.08650684
1.86266363 -0.04034106 1.11045206
1.86243391 -0.03961108 1.12977743
1.86413944 -0.04503140 1.15643895
1.86104095 -0.03518393 1.18930674
1.86157763 -0.03688964 1.21442759
1.86171007 -0.03731049 1.23903644
1.86635876 -0.05208515 1.28328884
1.86874688 -0.05967490 1.32040274
1.86439514 -0.04584439 1.35887122
1.86285949 -0.04096342 1.38217354
1.86734259 -0.05521204 1.43621564
1.86657000 -0.05275657 1.46669912
1.85989785 -0.03155079 1.50417030
1.86535203 -0.04888537 1.57470429
1.86516953 -0.04830521 1.61640930
1.86728001 -0.05501282 1.67517304
1.86964428 -0.06252728 1.73983979
1.86488175 -0.04739095 1.81654990
1.86356556 -0.04320766 1.86690044
1.85291040 -0.00934297 2.06448317
1.84512138 0.01541232 2.07579470
1.83522391 0.04686865 2.06573939
1.82706010 0.07281517 2.07221889
1.81020105 0.12639728 2.07792449
1.80345964 0.14782293 2.10232472
1.80642462 0.13839971 2.26963520
1.79568779 0.17252372 2.24991131
1.77927482 0.22468808 2.29007936
1.78049612 0.22080642 2.51346302
1.77075565 0.25176370 2.53246808
1.76025927 0.28512374 2.53505516
1.74963582 0.31888753 2.53304935
1.72875273 0.38525867 2.53813314
1.71832192 0.41841027 2.54126048
1.70777678 0.45192513 2.53478718
1.69739819 0.48491099 2.54469538
1.67650354 0.55131906 2.53369713
1.66599393 0.58472103 2.54178286
1.65553784 0.61795294 2.54026175
1.63460517 0.68448174 2.53738928
1.62417686 0.71762532 2.53404379
